# .PCD v0.7 - Point Cloud Data file format
VERSION 0.7
FIELDS x y z intensity
SIZE 4 4 4 4
TYPE F F F F
COUNT 1 1 1 1
WIDTH 1392
HEIGHT 1
VIEWPOINT 0 0 0 1 0 0 0
POINTS 1392
DATA ascii
4.9359097 -0.78431547 0.79157811 0
4.950778 -0.78667802 0.97440559 0
4.9443989 -0.78566444 1.1558238 0
4.3185387 -0.67137825 -0.53661865 0
4.90098 -0.76192713 -0.43393025 0
4.915586 -0.76419783 -0.26070914 0
4.9040122 -0.76239848 -0.086627983 0
4.9313607 -0.76665014 0.087111086 0
4.9026933 -0.76219338 0.26002532 0
4.9150457 -0.76411378 0.4351756 0
4.9210272 -0.76504374 0.61148345 0
4.933434 -0.76697248 0.79076421 0
4.9464788 -0.76900053 0.97304654 0
4.9605455 -0.77118737 1.1589874 0
4.3363347 -0.6592623 -0.53855228 0
4.9105477 -0.74656117 -0.4345533 0
4.8942175 -0.7440784 -0.25944203 0
4.9133544 -0.74698782 -0.08674828 0
4.9273062 -0.74910897 0.086994603 0
4.9156332 -0.7473343 0.26057729 0
4.9181671 -0.74771953 0.43522754 0
4.9309769 -0.74966705 0.61240405 0
4.939507 -0.75096393 0.79132968 0
4.9451966 -0.75182891 0.97229302 0
4.9575539 -0.75370759 1.1576915 0
4.3285761 -0.64324188 -0.53731781 0
4.8978009 -0.72783077 -0.43320692 0
4.9096789 -0.72959584 -0.26013052 0
4.9081068 -0.72936219 -0.086611971 0
4.9080896 -0.72935963 0.086611666 0
4.9157419 -0.73049676 0.26045173 0
4.9304099 -0.73267657 0.43609113 0
4.936625 -0.73360008 0.61279655 0
4.9486885 -0.73539275 0.79240108 0
4.9386277 -0.73389769 0.97051215 0
4.9625335 -0.73745024 1.1582705 0
4.317235 -0.6267693 -0.5356462 0
4.9021912 -0.71169227 -0.43338171 0
4.8894162 -0.70983762 -0.25892937 0
4.9079127 -0.71252292 -0.086565897 0
4.9289494 -0.71557701 0.086936943 0
4.940681 -0.71728021 0.26164421 0
4.9381533 -0.71691322 0.43656096 0
4.9316487 -0.71596891 0.61187744 0
4.9386296 -0.71698242 0.7904011 0
4.9542851 -0.71925521 0.97310966 0
4.9729366 -0.72196305 1.160127 0
4.3074274 -0.61060619 -0.53417236 0
4.9029374 -0.6950236 -0.43323922 0
4.8969545 -0.69417548 -0.25920385 0
4.9069786 -0.69559652 -0.086507805 0
4.9167094 -0.69697595 0.086679354 0
4.9345217 -0.69950092 0.26119235 0
4.9368815 -0.69983548 0.43623868 0
4.9158015 -0.6968472 0.60961795 0
4.9514704 -0.70190352 0.7920751 0
4.9484653 -0.70147753 0.97149915 0
4.9739099 -0.70508444 1.159796 0
4.3146982 -0.59688675 -0.53482282 0
4.8997097 -0.67781597 -0.43275076 0
4.8963799 -0.67735541 -0.2590518 0
4.9077368 -0.67892653 -0.086480558 0
4.9186211 -0.6804322 0.086672351 0
4.9175539 -0.68028456 0.26017204 0
4.9323912 -0.68233716 0.43563727 0
4.9449916 -0.68408024 0.61295003 0
4.9364462 -0.68289804 0.78930092 0
4.9486165 -0.6845817 0.97107273 0
4.9592547 -0.6860534 1.155836 0
4.3293948 -0.58413315 -0.53639871 0
4.8841801 -0.65898621 -0.43118161 0
4.9039011 -0.66164702 -0.2593309 0
4.9191141 -0.66369957 -0.086641334 0
4.9191418 -0.66370338 0.086641826 0
4.9247599 -0.66446131 0.26043394 0
4.9334164 -0.66562927 0.43552822 0
4.9358063 -0.66595179 0.61153126 0
4.9386792 -0.66633934 0.78929633 0
4.9377065 -0.66620815 0.96848816 0
4.9606338 -0.66930151 1.1556278 0
4.3073564 -0.56646156 -0.53342992 0
4.9027395 -0.64476055 -0.43262678 0
4.9147053 -0.64633417 -0.25978616 0
4.9015183 -0.64459997 -0.086292863 0
4.9141517 -0.64626139 0.086515285 0
4.923068 -0.647434 0.26022822 0
4.9352431 -0.64903516 0.43549496 0
4.9193797 -0.64694893 0.60922384 0
4.9417844 -0.64989537 0.78943992 0
4.9443521 -0.65023309 0.96935856 0
4.9514308 -0.651164 1.1529689 0
4.3335238 -0.55512851 -0.53643703 0
4.905828 -0.62844127 -0.43271095 0
4.9228716 -0.63062453 -0.2601046 0
4.8959465 -0.62717539 -0.08615727 0
4.9083519 -0.62876457 0.086375579 0
4.9287653 -0.63137954 0.260416 0
4.9302449 -0.63156909 0.43486461 0
4.9383402 -0.63260603 0.61130583 0
4.9452748 -0.63349438 0.78965378 0
4.9402237 -0.63284737 0.96812773 0
4.9575262 -0.63506383 1.153886 0
4.314425 -0.53798538 -0.53384656 0
4.9005575 -0.6110729 -0.43206292 0
4.9171057 -0.61313635 -0.2596899 0
4.8970618 -0.61063695 -0.086140379 0
4.9106336 -0.61232936 0.086379118 0
4.9226665 -0.61382979 0.25998357 0
4.9250641 -0.61412871 0.43422359 0
4.9429026 -0.61635309 0.61161137 0
4.9413438 -0.61615872 0.78869176 0
4.9660926 -0.61924475 0.97278488 0
4.9485445 -0.61705661 1.1513073 0
4.3296247 -0.52514464 -0.53550637 0
4.8941402 -0.59361529 -0.43131924 0
4.9204884 -0.59681112 -0.25976139 0
4.9054365 -0.59498543 -0.086252123 0
4.9264326 -0.59753209 0.086621299 0
4.9219255 -0.5969854 0.25983727 0
4.9213386 -0.59691417 0.43371621 0
4.9451919 -0.59980738 0.61164236 0
4.933156 -0.59834754 0.78706032 0
4.9336061 -0.59840214 0.96602279 0
4.9567332 -0.60120726 1.152737 0
4.3139291 -0.50857019 -0.53335118 0
4.8970242 -0.5773114 -0.43140039 0
4.9105248 -0.57890302 -0.25913149 0
4.9114141 -0.57900786 -0.086322606 0
4.9270735 -0.58085394 0.08659783 0
4.9219527 -0.58025026 0.25973454 0
4.9188933 -0.5798896 0.43332696 0
4.9335451 -0.58161688 0.60995722 0
4.9307642 -0.58128905 0.7863633 0
4.9455628 -0.58303362 0.96797574 0
4.9515691 -0.58374172 1.1510745 0
4.3142905 -0.49395248 -0.53318816 0
4.8846889 -0.55925864 -0.43014613 0
4.9106007 -0.56222534 -0.25903454 0
4.9211669 -0.56343508 -0.08646033 0
4.9108362 -0.56225228 0.086278833 0
4.9235778 -0.56371111 0.2597191 0
4.9294295 -0.56438112 0.43408599 0
4.9396272 -0.5655486 0.61047131 0
4.947423 -0.56644118 0.7887128 0
4.9376931 -0.56532717 0.96605903 0
4.9521198 -0.56697893 1.1507541 0
4.3177013 -0.47968233 -0.53340787 0
4.9038749 -0.54480428 -0.43167236 0
4.9157143 -0.54611957 -0.25920627 0
4.9056206 -0.54499823 -0.08615461 0
4.9191394 -0.54650009 0.08639203 0
4.9395185 -0.54876417 0.26046145 0
4.9453144 -0.54940808 0.43532017 0
4.9491711 -0.54983652 0.6114195 0
4.9455929 -0.54943901 0.78812289 0
4.9564071 -0.5506404 0.9693538 0
4.9465551 -0.54954594 1.1490265 0
4.3224192 -0.46554074 -0.53379494 0
4.9106956 -0.52890033 -0.43211424 0
4.8982716 -0.52756214 -0.25819176 0
4.9112134 -0.52895606 -0.086221196 0
4.9181867 -0.52970713 0.086343624 0
4.9420786 -0.53228033 0.26050088 0
4.9314909 -0.53114003 0.43394414 0
4.9530869 -0.53346598 0.61167884 0
4.9564214 -0.5338251 0.78955883 0
4.9498768 -0.53312027 0.96772158 0
4.943634 -0.53244787 1.1479268 0
4.3335605 -0.45204774 -0.5349806 0
4.8917255 -0.51027179 -0.43029204 0
4.9091463 -0.51208901 -0.25867304 0
4.9049745 -0.51165378 -0.086081065 0
4.9284492 -0.51410252 0.086493045 0
4.9144607 -0.51264334 0.25895306 0
4.931684 -0.51444 0.4338069 0
4.9433637 -0.51565826 0.61026114 0
4.9579725 -0.51718217 0.78952527 0
4.9510975 -0.51646507 0.96761626 0
4.9684982 -0.51828015 1.1532903 0
4.3891869 -0.44297922 -0.54166132 0
4.8937426 -0.49390155 -0.43032137 0
4.8935981 -0.49388692 -0.25776505 0
4.9130874 -0.49585393 -0.086193785 0
4.9308805 -0.4976497 0.086505942 0
4.920557 -0.49660781 0.25918511 0
4.9365325 -0.49822012 0.434084 0
4.9378815 -0.49835628 0.6093747 0
4.953043 -0.49988642 0.78846896 0
4.9639773 -0.50099003 0.96979976 0
4.9572716 -0.50031316 1.1502885 0
4.401794 -0.42934778 -0.5430364 0
4.897769 -0.47772485 -0.43053216 0
4.9020057 -0.47813812 -0.25812203 0
4.908031 -0.47872582 -0.086076438 0
4.9233809 -0.48022303 0.086345643 0
4.9278107 -0.4806551 0.25948083 0
4.9344397 -0.4813017 0.43375564 0
4.9357533 -0.48142985 0.60890949 0
4.9553885 -0.483345 0.78857994 0
4.9455957 -0.48238984 0.96588707 0
4.9509354 -0.48291069 1.1484362 0
4.4227123 -0.41642341 -0.54544181 0
4.8996658 -0.46133128 -0.43056053 0
4.8982348 -0.46119651 -0.2578406 0
4.9174595 -0.46300662 -0.08621408 0
4.9098988 -0.46229476 0.086081527 0
4.9134746 -0.46263143 0.25864279 0
4.9425659 -0.46537054 0.43433037 0
4.9437079 -0.46547806 0.60969484 0
4.9456477 -0.46566069 0.7867769 0
4.9434843 -0.46545702 0.9651646 0
4.9525552 -0.4663111 1.1484427 0
4.3935275 -0.39881882 -0.54167455 0
4.9013848 -0.44491917 -0.43057805 0
4.9110327 -0.44579491 -0.25843415 0
4.9083571 -0.44555205 -0.086027823 0
4.940547 -0.44847405 0.086592011 0
4.9234085 -0.44691834 0.25908542 0
4.9379764 -0.4482407 0.43379253 0
4.9407187 -0.44848964 0.6091373 0
4.9548631 -0.44977358 0.78799862 0
4.9563112 -0.44990504 0.9673689 0
4.9596586 -0.4502089 1.1497334 0
4.4007516 -0.38460255 -0.54240316 0
4.8771911 -0.42624089 -0.42832473 0
4.9085879 -0.42898479 -0.25822836 0
4.9018555 -0.42839637 -0.085888207 0
4.906703 -0.42882004 0.085973144 0
4.9327197 -0.43109378 0.25949785 0
4.9361081 -0.4313899 0.43349892 0
4.9557772 -0.43310887 0.61081135 0
4.9540529 -0.43295819 0.78763449 0
4.9454494 -0.43220627 0.96496063 0
4.9509892 -0.43269044 1.1473811 0
4.3937511 -0.36915109 -0.5413847 0
4.8937054 -0.41115588 -0.42965156 0
4.9086266 -0.41240954 -0.25815621 0
4.9035497 -0.41198295 -0.085893206 0
4.9096279 -0.41249365 0.085999675 0
4.9277086 -0.41401273 0.25915977 0
4.9205365 -0.41341016 0.43200722 0
4.9330335 -0.41446012 0.60783345 0
4.9458117 -0.41553372 0.78609836 0
4.9512706 -0.41599238 0.96581894 0
4.9629354 -0.4169724 1.149819 0
4.3977156 -0.35463947 -0.54172367 0
4.892911 -0.39457288 -0.42946327 0
4.9041533 -0.39547947 -0.25784972 0
4.9166846 -0.39649004 -0.08609952 0
4.9238319 -0.39706644 0.086224683 0
4.9117308 -0.39609057 0.25824815 0
4.9281287 -0.39741293 0.43255442 0
4.9343386 -0.39791369 0.60782647 0
4.9293489 -0.3975113 0.78326547 0
4.9494977 -0.39913616 0.96520662 0
4.9463735 -0.39888418 1.1456656 0
4.4065213 -0.34048322 -0.54266471 0
4.9119577 -0.37953728 -0.43102092 0
4.9115105 -0.37950274 -0.25816822 0
4.9078555 -0.37922031 -0.085922159 0
4.9240751 -0.38047358 0.086206116 0
4.9387293 -0.38160589 0.25959897 0
4.9390011 -0.38162687 0.43339396 0
4.931334 -0.38103446 0.60729563 0
4.9502306 -0.38249454 0.78637534 0
4.944479 -0.38205013 0.96397269 0
4.960113 -0.38325813 1.148544 0
4.3984742 -0.32502988 -0.54153645 0
4.9066091 -0.36257905 -0.43044248 0
4.8997965 -0.36207563 -0.25748724 0
4.9163513 -0.36329895 -0.086049087 0
4.9163561 -0.36329931 0.086049169 0
4.9409122 -0.36511388 0.25964788 0
4.9243188 -0.36388773 0.43199614 0
4.9342999 -0.36462528 0.60750687 0
4.94136 -0.36514699 0.78476727 0
4.9539061 -0.36607409 0.96556586 0
4.9571152 -0.36631125 1.1475589 0
4.4133372 -0.31125394 -0.54323488 0
4.904552 -0.3458972 -0.43015787 0
4.9085927 -0.3461822 -0.25788704 0
4.9157648 -0.34668797 -0.086017989 0
4.9046774 -0.34590605 0.085823983 0
4.9210949 -0.3470639 0.25854388 0
4.9347539 -0.34802723 0.43280676 0
4.9325686 -0.34787309 0.60714668 0
4.9487214 -0.34901229 0.78574616 0
4.9617987 -0.34993458 0.96687013 0
4.9619241 -0.34994343 1.1483941 0
4.4030557 -0.29569617 -0.54184419 0
4.9058342 -0.32946131 -0.43017104 0
4.9062586 -0.3294898 -0.25770491 0
4.8974309 -0.32889694 -0.0856774 0
4.9200692 -0.33041728 0.086073443 0
4.939733 -0.33173785 0.25946316 0
4.9274793 -0.33091491 0.432069 0
4.9239545 -0.33067819 0.60594654 0
4.9447627 -0.33207563 0.78493643 0
4.9525595 -0.33259922 0.96484697 0
4.9626036 -0.33327377 1.1482862 0
4.4121766 -0.28145206 -0.54284745 0
4.8954954 -0.31228289 -0.42917025 0
4.9048271 -0.31287816 -0.25757319 0
4.9302139 -0.31449759 -0.086231992 0
4.9088521 -0.31313494 0.08585836 0
4.9225879 -0.31401113 0.25850588 0
4.9314718 -0.31457782 0.43232414 0
4.9381523 -0.31500399 0.60756034 0
4.9519467 -0.31588393 0.78590429 0
4.9417987 -0.31523657 0.96253932 0
4.9544764 -0.31604528 1.146154 0
4.3921905 -0.26539412 -0.54027599 0
4.9092774 -0.29663861 -0.43028882 0
4.911869 -0.29679522 -0.25788924 0
4.9223471 -0.29742837 -0.086076468 0
4.9002452 -0.29609287 0.085689977 0
4.9226246 -0.29744512 0.25845397 0
4.9318151 -0.29800045 0.43226424 0
4.9315391 -0.29798377 0.60662031 0
4.9437852 -0.29872373 0.78444558 0
4.9493632 -0.29906079 0.96381199 0
4.956881 -0.29951504 1.1464716 0
4.3975945 -0.25092542 -0.54083419 0
4.8968329 -0.27941182 -0.42911357 0
4.9105997 -0.28019735 -0.25777185 0
4.9016633 -0.27968743 -0.085697889 0
4.9042454 -0.27983478 0.085743032 0
4.9235387 -0.28093567 0.25845107 0
4.9290967 -0.28125277 0.43194088 0
4.9371486 -0.28171223 0.60719079 0
4.9542966 -0.2826907 0.78595871 0
4.9457226 -0.28220147 0.96291333 0
4.955215 -0.2827431 1.1458607 0
4.4042387 -0.23649265 -0.54155076 0
4.8991127 -0.26306567 -0.42923364 0
4.9079776 -0.2635417 -0.25758639 0
4.9080682 -0.26354659 -0.085793942 0
4.9176188 -0.26405939 0.085960887 0
4.9198823 -0.26418096 0.2582112 0
4.9196382 -0.26416785 0.43103197 0
4.93749 -0.26512641 0.60711998 0
4.9404755 -0.26528671 0.78362054 0
4.9473729 -0.2656571 0.96305579 0
4.9571838 -0.26618391 1.146103 0
4.4087615 -0.22191371 -0.54201233 0
4.9026437 -0.24677314 -0.42946813 0
4.9111238 -0.24719998 -0.25770655 0
4.9161973 -0.24745536 -0.085921057 0
4.9040561 -0.24684422 0.085708857 0
4.9318509 -0.24824327 0.25879419 0
4.9479423 -0.24905322 0.43343624 0
4.9288745 -0.24809347 0.60595495 0
4.9389544 -0.24860083 0.7832427 0
4.9327025 -0.24828614 0.9600327 0
4.9577928 -0.24954905 1.1460439 0
4.4043798 -0.20689112 -0.54138535 0
4.9027386 -0.23030099 -0.42940637 0
4.9262314 -0.23140456 -0.25845715 0
4.9347525 -0.23180482 -0.086231284 0
4.9203668 -0.23112905 0.085979894 0
4.9167485 -0.23095909 0.2579596 0
4.9164009 -0.23094277 0.430603 0
4.9293461 -0.23155086 0.60591412 0
4.9453726 -0.23230368 0.78413254 0
4.9616714 -0.2330693 0.96551323 0
4.9599028 -0.23298623 1.1463447 0
4.4023094 -0.19200343 -0.54104871 0
4.893981 -0.21344732 -0.42857426 0
4.9024253 -0.2138156 -0.2571691 0
4.9059792 -0.2139706 -0.085715465 0
4.9117446 -0.21422206 0.085816197 0
4.9300199 -0.21501911 0.25861663 0
4.9425273 -0.21556462 0.43282554 0
4.9364591 -0.21529996 0.60669625 0
4.937243 -0.21533416 0.78272474 0
4.9453955 -0.21568972 0.96219987 0
4.9616838 -0.21640012 1.1465821 0
4.4067483 -0.17739601 -0.54151809 0
4.8970046 -0.19713154 -0.42877877 0
4.8998084 -0.19724441 -0.25699568 0
4.9259911 -0.19829839 -0.086053006 0
4.9205413 -0.19807902 0.085957803 0
4.9237585 -0.19820853 0.25825185 0
4.9309483 -0.19849797 0.43175083 0
4.9303932 -0.19847561 0.6058656 0
4.9537401 -0.19941545 0.78522962 0
4.9620881 -0.1997515 0.96531194 0
4.9618988 -0.19974388 1.1464707 0
4.4053402 -0.16254704 -0.54127508 0
4.8945365 -0.18059726 -0.42850721 0
4.9124093 -0.18125673 -0.25762329 0
4.9144521 -0.1813321 -0.085840322 0
4.9366593 -0.18215148 0.086228214 0
4.9235129 -0.18166642 0.25820556 0
4.9336524 -0.18204054 0.43193176 0
4.9350896 -0.18209358 0.60636425 0
4.9532924 -0.18276522 0.78505713 0
4.9409957 -0.18231149 0.96108437 0
4.9580593 -0.18294111 1.1454353 0
4.401351 -0.1476246 -0.54072106 0
4.8935909 -0.16413468 -0.42837384 0
4.9092288 -0.16465919 -0.25742608 0
4.9244852 -0.16517089 -0.086005419 0
4.9181042 -0.16495687 0.085893974 0
4.9273391 -0.16526662 0.25837573 0
4.9175448 -0.16493812 0.43047073 0
4.9304447 -0.16537078 0.60572201 0
4.9482336 -0.16596743 0.78416276 0
4.9535742 -0.16614656 0.96341723 0
4.950264 -0.16603553 1.1434994 0
4.4033604 -0.13291332 -0.54091012 0
4.9112816 -0.14824468 -0.42987654 0
4.8843594 -0.14743204 -0.25609463 0
4.9117227 -0.14825799 -0.085773356 0
4.9293036 -0.14878866 0.086080372 0
4.9229693 -0.14859746 0.25811902 0
4.936069 -0.14899288 0.43204615 0
4.9340105 -0.14893073 0.60609531 0
4.9467134 -0.14931417 0.78383809 0
4.9576831 -0.14964528 0.96411341 0
4.9568563 -0.14962032 1.1449 0
4.3895006 -0.11776581 -0.53915608 0
4.8926535 -0.13126488 -0.4282051 0
4.8993826 -0.13144541 -0.25685778 0
4.9124632 -0.13179636 -0.085778095 0
4.9163165 -0.13189973 0.085845374 0
4.9205194 -0.13201249 0.25796589 0
4.9307642 -0.13228735 0.43154058 0
4.9316502 -0.13231112 0.60574752 0
4.9506702 -0.1328214 0.78439009 0
4.950139 -0.13280715 0.96255434 0
4.9550419 -0.1329387 1.1443714 0
4.4154959 -0.10364949 -0.54230326 0
4.9056425 -0.11515521 -0.4293057 0
4.9167762 -0.11541656 -0.25774792 0
4.9021459 -0.11507313 -0.08559072 0
4.9235582 -0.11557577 0.085964575 0
4.9298792 -0.11572415 0.25843483 0
4.9272504 -0.11566244 0.43119669 0
4.9246168 -0.11560062 0.60483259 0
4.9583964 -0.11639356 0.78554797 0
4.9422736 -0.11601509 0.96094388 0
4.9428139 -0.11602777 1.1414511 0
4.401814 -0.088562824 -0.54058337 0
4.9117942 -0.098823428 -0.42981264 0
4.9064045 -0.098714992 -0.25718543 0
4.9091215 -0.098769657 -0.085706249 0
4.9143968 -0.098875798 0.085798353 0
4.9331656 -0.099253409 0.25858819 0
4.9186969 -0.098962307 0.43041664 0
4.9292321 -0.099174269 0.60535514 0
4.9433665 -0.099458657 0.78310966 0
4.9416656 -0.099424429 0.96075541 0
4.9483294 -0.099558502 1.1426413 0
4.4199443 -0.074103273 -0.54277635 0
4.8876042 -0.081943907 -0.42766944 0
4.9063225 -0.082257725 -0.25716522 0
4.9124894 -0.082361117 -0.085759744 0
4.9151139 -0.08240512 0.085805558 0
4.9122529 -0.082357153 0.25747606 0
4.9276924 -0.082616009 0.43117717 0
4.9422808 -0.082860589 0.60692018 0
4.9434228 -0.082879737 0.78307015 0
4.9513464 -0.083012581 0.96257806 0
4.9692316 -0.083312444 1.147397 0
4.4181938 -0.059257146 -0.54253399 0
4.8927321 -0.065621682 -0.42809644 0
4.9160304 -0.065934166 -0.25766104 0
4.9149365 -0.065919496 -0.085798122 0
4.9151587 -0.065922469 0.085802004 0
4.9319739 -0.066147998 0.25849667 0
4.92662 -0.066076189 0.43106154 0
4.9254651 -0.0660607 0.60482454 0
4.9508567 -0.066401258 0.784208 0
4.9463921 -0.066341378 0.96156621 0
4.9416437 -0.06627769 1.1409692 0
4.4049592 -0.044308566 -0.54088753 0
4.8848548 -0.049135741 -0.42739043 0
4.9032807 -0.049321078 -0.25698265 0
4.9129753 -0.049418595 -0.085760511 0
4.9181962 -0.04947111 0.085851647 0
4.9197946 -0.049487192 0.25784817 0
4.9156561 -0.049445562 0.4300853 0
4.9398303 -0.049688723 0.60656464 0
4.9424829 -0.049715407 0.7828508 0
4.9369607 -0.049659859 0.95969504 0
4.9516339 -0.049807455 1.1432309 0
4.41643 -0.029615412 -0.54228079 0
4.8948202 -0.032823369 -0.42825025 0
4.9088697 -0.032917585 -0.25726837 0
4.9308634 -0.033065066 -0.086070351 0
4.910778 -0.032930378 0.085719749 0
4.9319258 -0.033072192 0.2584767 0
4.919188 -0.032986775 0.43038222 0
4.934967 -0.033092584 0.60595047 0
4.9395142 -0.033123076 0.78235859 0
4.9530692 -0.033213973 0.96279931 0
4.9710293 -0.033334408 1.1476766 0
4.4190421 -0.014816298 -0.54259241 0
4.9072385 -0.016453136 -0.42932948 0
4.910799 -0.016465075 -0.25736514 0
4.8987856 -0.016424796 -0.085508972 0
4.915257 -0.016480021 0.08579649 0
4.9376082 -0.016554963 0.25877017 0
4.9308968 -0.01653246 0.43139938 0
4.9339314 -0.016542634 0.60581309 0
4.9492307 -0.016593929 0.78388435 0
4.9495521 -0.016595008 0.96209943 0
4.9602728 -0.016630951 1.1451739 0
4.4046845 0 -0.54082644 0
4.9135108 0 -0.42987585 0
4.893342 0 -0.25644881 0
4.9155827 0 -0.085801691 0
4.9210877 0 0.085897781 0
4.9221888 0 0.25796059 0
4.9284601 0 0.43118376 0
4.9320927 0 0.60558391 0
4.9457736 0 0.78333241 0
4.9483795 0 0.96186608 0
4.9529634 0 1.1434799 0
4.4017057 0.014758172 -0.54046375 0
4.9049911 0.016445601 -0.42913291 0
4.903657 0.016441127 -0.25699082 0
4.9035811 0.016440874 -0.08559268 0
4.9112535 0.016466599 0.085726604 0
4.93255 0.016538002 0.25850505 0
4.935185 0.016546836 0.4317745 0
4.9297204 0.016528513 0.60529602 0
4.9401112 0.016563354 0.78244001 0
4.9569492 0.016619807 0.96353722 0
4.9358778 0.016549159 1.1395419 0
4.40799 0.029558813 -0.54124445 0
4.9095945 0.032922443 -0.42954287 0
4.9108667 0.032930974 -0.25737303 0
4.9103408 0.032927446 -0.085712112 0
4.9284873 0.033049133 0.086028874 0
4.9234471 0.033015337 0.25803235 0
4.9348769 0.033091981 0.43175486 0
4.9344559 0.033089153 0.60588771 0
4.9491186 0.033187479 0.78387982 0
4.9527349 0.03321173 0.96273434 0
4.9723835 0.033343486 1.1479892 0
4.3985057 0.044243652 -0.54009509 0
4.9044909 0.049333252 -0.42910841 0
4.9126148 0.049414966 -0.25747186 0
4.9290228 0.049580015 -0.086040638 0
4.9089899 0.049378511 0.085690945 0
4.9299426 0.049589265 0.25838003 0
4.9443431 0.049734119 0.43259522 0
4.9434686 0.049725324 0.60701144 0
4.9505353 0.049796406 0.78412628 0
4.9376507 0.0496668 0.95982915 0
4.9496927 0.049787927 1.1427827 0
4.4021058 0.059041366 -0.5405584 0
4.9039645 0.06577234 -0.42907926 0
4.9120874 0.065881282 -0.25745437 0
4.9139576 0.065906361 -0.085781038 0
4.9203434 0.065992013 0.085892513 0
4.9213524 0.066005543 0.25793996 0
4.9284658 0.066100955 0.43122303 0
4.9310641 0.066135794 0.60551208 0
4.9437828 0.066306382 0.78308749 0
4.9537082 0.066439502 0.9629885 0
4.9564505 0.066476278 1.1443878 0
4.4161134 0.074039049 -0.54230595 0
4.9018493 0.082182728 -0.42891589 0
4.9024596 0.082192965 -0.25696275 0
4.9081712 0.08228872 -0.085684359 0
4.9132848 0.082374454 0.085773624 0
4.916492 0.082428217 0.25769824 0
4.9482059 0.082959935 0.43297213 0
4.9318533 0.082685769 0.60563964 0
4.9546533 0.083068021 0.78484905 0
4.953557 0.08304964 0.96300775 0
4.9569006 0.083105706 1.1445497 0
4.4096346 0.088720165 -0.54154378 0
4.9016881 0.098620102 -0.42892829 0
4.9081931 0.098750979 -0.25727919 0
4.9104328 0.09879604 -0.085729145 0
4.9288945 0.099167481 0.086051457 0
4.9265494 0.099120297 0.25824139 0
4.934268 0.099275596 0.43177927 0
4.9505725 0.099603631 0.60797596 0
4.9366732 0.099323981 0.7820493 0
4.9351964 0.099294275 0.95949775 0
4.9596062 0.099785388 1.1452453 0
4.3974667 0.10322627 -0.54008895 0
4.8945088 0.11489386 -0.42833135 0
4.9038615 0.11511341 -0.25707093 0
4.9132915 0.11533476 -0.085785314 0
4.9178157 0.11544096 0.085864313 0
4.9253912 0.1156188 0.25819954 0
4.9307566 0.11574474 0.4315035 0
4.9393077 0.11594547 0.60663688 0
4.9501929 0.116201 0.78424835 0
4.9592714 0.11641411 0.96424884 0
4.9674726 0.11660662 1.1471456 0
4.3959126 0.11793783 -0.53994364 0
4.9123211 0.13179255 -0.42992643 0
4.9002376 0.13146836 -0.25690261 0
4.9083524 0.13168606 -0.085706316 0
4.9032993 0.13155049 0.085618071 0
4.9316721 0.1323117 0.25855061 0
4.9184647 0.13195737 0.43046409 0
4.9355159 0.13241483 0.60622233 0
4.9311728 0.13229831 0.7813009 0
4.9443846 0.13265276 0.96143532 0
4.9645982 0.13319507 1.1465784 0
4.396512 0.1327066 -0.54006881 0
4.9057794 0.14807859 -0.42939493 0
4.9177742 0.14844066 -0.25784662 0
4.9274492 0.14873269 -0.086047992 0
4.9155397 0.1483732 0.085840017 0
4.9344349 0.14894356 0.25872019 0
4.9207392 0.14853016 0.43070433 0
4.9469271 0.14932062 0.60768199 0
4.9432092 0.1492084 0.78328288 0
4.9602356 0.14972232 0.9646098 0
4.9655819 0.14988372 1.1469153 0
4.4072332 0.14782187 -0.54144365 0
4.8981676 0.16428819 -0.42877448 0
4.9068995 0.16458106 -0.25730392 0
4.9215384 0.16507207 -0.085953958 0
4.9273152 0.16526581 0.086054847 0
4.9349794 0.16552289 0.25877637 0
4.9179101 0.16495036 0.43050268 0
4.9339128 0.16548711 0.60614806 0
4.9537868 0.1661537 0.78504282 0
4.9620247 0.16643 0.96506083 0
4.9547405 0.16618569 1.1445335 0
4.4106493 0.16274291 -0.54192734 0
4.9062757 0.18103041 -0.42953497 0
4.9030433 0.18091114 -0.25713208 0
4.9111657 0.18121083 -0.085782923 0
4.9125643 0.18126243 0.085807353 0
4.9356365 0.18211374 0.25884137 0
4.9246163 0.18170714 0.43114066 0
4.9354601 0.18210724 0.60640979 0
4.9621882 0.18309344 0.78646702 0
4.9381523 0.18220657 0.96053123 0
4.9678349 0.18330181 1.1476938 0
4.391736 0.17679167 -0.53967327 0
4.9061427 0.19749939 -0.42957887 0
4.8997278 0.19724117 -0.25699145 0
4.9153638 0.19787058 -0.085867353 0
4.922564 0.19816045 0.085993141 0
4.925046 0.19826035 0.25831938 0
4.9237118 0.19820665 0.43111721 0
4.9324021 0.19855648 0.60611242 0
4.9498296 0.19925803 0.78460979 0
4.9565854 0.19952999 0.96424145 0
4.9479795 0.19918355 1.1432545 0
4.4099412 0.19233628 -0.54198664 0
4.9083133 0.21407241 -0.42982936 0
4.9132867 0.21428932 -0.25773886 0
4.9124269 0.21425182 -0.085828118 0
4.9116135 0.21421634 0.08581391 0
4.9289722 0.21497343 0.25856167 0
4.9359832 0.21527921 0.43225247 0
4.9305992 0.21504438 0.60597605 0
4.9539762 0.21606396 0.7853775 0
4.9608965 0.21636578 0.96521586 0
4.9572887 0.21620843 1.1455665 0
4.3944349 0.20642397 -0.54016292 0
4.9112496 0.23070079 -0.43015182 0
4.9063191 0.2304692 -0.25741243 0
4.9132304 0.23079383 -0.085855193 0
4.9160466 0.23092613 0.085904405 0
4.9262319 0.23140456 0.25845715 0
4.9309869 0.23162793 0.4318805 0
4.9332671 0.23173504 0.60639602 0
4.9351625 0.23182407 0.78251368 0
4.950531 0.23254599 0.96334535 0
4.95186 0.23260842 1.1444858 0
4.4083734 0.22189417 -0.54196459 0
4.8904953 0.24616165 -0.42840394 0
4.9113913 0.24721344 -0.25772059 0
4.9257641 0.24793689 -0.086088248 0
4.9056783 0.24692588 0.085737206 0
4.9316988 0.24823561 0.2587862 0
4.9289818 0.24809885 0.4317753 0
4.945231 0.24891676 0.60796583 0
4.9484892 0.24908075 0.78475475 0
4.9463692 0.24897404 0.96269256 0
4.9615855 0.24973996 1.1469207 0
4.3947554 0.23598342 -0.54038465 0
4.8913636 0.2626496 -0.42855471 0
4.9106407 0.26368472 -0.25772616 0
4.9227104 0.2643328 -0.086049892 0
4.9097166 0.2636351 0.085822761 0
4.9337506 0.26492563 0.25893903 0
4.9245181 0.2644299 0.43145955 0
4.9382153 0.26516536 0.60720915 0
4.9371624 0.26510885 0.78309506 0
4.963901 0.26654461 0.96627325 0
4.9600463 0.2663376 1.1467649 0
4.3974833 0.2509191 -0.54082054 0
4.8992462 0.27954954 -0.42932507 0
4.9091511 0.28011471 -0.25769579 0
4.908309 0.28006664 -0.085814081 0
4.9241233 0.28096899 0.086090565 0
4.9084754 0.28007615 0.25766033 0
4.9310002 0.2813614 0.43210769 0
4.9218206 0.2808376 0.60530567 0
4.9421535 0.2819978 0.78403229 0
4.960742 0.28305843 0.96583754 0
4.9632835 0.28320348 1.1477263 0
4.4034982 0.26607737 -0.54166692 0
4.8992186 0.29603085 -0.42940721 0
4.9007378 0.29612264 -0.25730485 0
4.9234939 0.29749766 -0.086096525 0
4.9166117 0.2970818 0.085976169 0
4.9293141 0.29784933 0.25880519 0
4.933547 0.29810509 0.43241602 0
4.9479809 0.29897726 0.60864282 0
4.9385452 0.29840711 0.78361416 0
4.9453511 0.29881835 0.96303064 0
4.9607811 0.29975069 1.1473737 0
4.421032 0.28201696 -0.54393697 0
4.8971 0.31238526 -0.42931092 0
4.9160571 0.31359452 -0.25816292 0
4.9168606 0.31364578 -0.085998431 0
4.9198904 0.31383905 0.086051427 0
4.928412 0.31438261 0.25881171 0
4.9242964 0.31412011 0.4316951 0
4.9462571 0.31552097 0.60855752 0
4.9542665 0.3160319 0.78627247 0
4.9605603 0.3164334 0.96619362 0
4.9628296 0.31657815 1.1480865 0
4.3971395 0.29529887 -0.54111618 0
4.9084272 0.32963544 -0.4303984 0
4.9104767 0.32977307 -0.25792646 0
4.9242334 0.33069694 -0.086146295 0
4.9372649 0.33157212 0.086374275 0
4.9208455 0.33046943 0.2584711 0
4.9360871 0.33149299 0.43282375 0
4.9239726 0.33067942 0.60594875 0
4.9408875 0.33181536 0.78432125 0
4.9426126 0.3319312 0.96290916 0
4.9579167 0.33295903 1.1472018 0
4.4064198 0.31076604 -0.54238337 0
4.8920097 0.34501266 -0.42905784 0
4.91114 0.34636185 -0.25802088 0
4.9252214 0.34735495 -0.086183473 0
4.9202995 0.34700781 0.086097345 0
4.9124084 0.34645128 0.25808749 0
4.9347668 0.34802812 0.43280786 0
4.9436307 0.34865326 0.60850829 0
4.9464097 0.34884924 0.78537905 0
4.9551225 0.34946373 0.9655692 0
4.9455838 0.34879097 1.1446122 0
4.4232922 0.32686383 -0.54459202 0
4.9055643 0.36250183 -0.43035081 0
4.9090657 0.36276057 -0.25797433 0
4.9154634 0.36323333 -0.086033545 0
4.9207077 0.36362088 0.086125337 0
4.9437208 0.36532146 0.25979549 0
4.9380021 0.36489889 0.43319651 0
4.9245348 0.36390367 0.60630459 0
4.9376631 0.36487383 0.78418016 0
4.965385 0.36692235 0.96780318 0
4.9509816 0.36585799 1.1461389 0
4.4023104 0.34015784 -0.54214615 0
4.9167132 0.37990472 -0.43143821 0
4.9067087 0.3791317 -0.25791582 0
4.9182954 0.38002697 -0.086104929 0
4.9106545 0.37943658 0.085971162 0
4.9166908 0.37990299 0.25844052 0
4.9336615 0.38121426 0.4329254 0
4.9352746 0.38133892 0.60778087 0
4.9442554 0.38203284 0.78542608 0
4.9576964 0.38307142 0.96654958 0
4.9647136 0.38361362 1.1496091 0
4.4067321 0.35536656 -0.54283434 0
4.9032307 0.39540508 -0.43036905 0
4.9143963 0.3963055 -0.25838828 0
4.9043341 0.39549407 -0.085883237 0
4.9027896 0.39536953 0.085856199 0
4.9227405 0.39697841 0.25882703 0
4.9304204 0.3975977 0.43275553 0
4.9338279 0.39787251 0.60776359 0
4.9341793 0.39790082 0.784033 0
4.9387627 0.39827046 0.96311319 0
4.9720883 0.40095791 1.1516217 0
4.4207973 0.37142342 -0.54471725 0
4.9114451 0.41264632 -0.43120906 0
4.9128008 0.41276023 -0.2583757 0
4.9132619 0.41279897 -0.086063333 0
4.9302206 0.41422382 0.086360395 0
4.9101963 0.41254139 0.25823873 0
4.9419317 0.41520771 0.43388566 0
4.939806 0.41502911 0.60866791 0
4.9553537 0.41633543 0.787615 0
4.9493399 0.41583017 0.9654423 0
4.9643869 0.41709435 1.1501553 0
4.3997364 0.38451383 -0.54227805 0
4.9035134 0.4285413 -0.43063641 0
4.9127755 0.42935073 -0.25844863 0
4.9144382 0.42949605 -0.086108685 0
4.9152336 0.42956558 0.086122617 0
4.9280276 0.4306837 0.259251 0
4.9330134 0.43111941 0.43322712 0
4.9395752 0.4316929 0.60881442 0
4.9459748 0.43225223 0.78635025 0
4.956501 0.43317214 0.96711707 0
4.959897 0.43346891 1.1494453 0
4.4158978 0.40084946 -0.54443252 0
4.9107609 0.44577026 -0.43140173 0
4.9072404 0.44545066 -0.25823456 0
4.9159784 0.44624388 -0.086161405 0
4.9429989 0.44869664 0.086634979 0
4.9266415 0.4472118 0.25925553 0
4.937696 0.44821528 0.43376794 0
4.9390512 0.44833827 0.60893172 0
4.9411845 0.44853196 0.78582329 0
4.9475536 0.44911009 0.96565962 0
4.9560599 0.44988224 1.1488992 0
4.3993626 0.41422489 -0.54256213 0
4.9075837 0.46207678 -0.43125629 0
4.9057093 0.46190029 -0.25823405 0
4.9119043 0.46248361 -0.086116694 0
4.9141178 0.46269199 0.086155489 0
4.923799 0.46360356 0.2591863 0
4.9191704 0.4631677 0.43227446 0
4.9441133 0.46551624 0.60974479 0
4.9436436 0.46547204 0.78645813 0
4.9497685 0.46604869 0.96639144 0
4.958765 0.46689579 1.1498828 0
4.3177757 0.42115274 -0.53267139 0
4.8921337 0.47717521 -0.43003681 0
4.9124107 0.47915304 -0.25866994 0
4.9294763 0.48081759 -0.086452544 0
4.9164629 0.47954825 0.08622431 0
4.932085 0.48107204 0.2597059 0
4.9212446 0.48001465 0.43259576 0
4.9460502 0.48243418 0.61017972 0
4.938282 0.48167646 0.78585768 0
4.9528017 0.48309273 0.96729451 0
4.9718409 0.48494977 1.1532854 0
4.3257265 0.43657446 -0.53382981 0
4.9031038 0.49484634 -0.43114454 0
4.8999271 0.49452573 -0.25809845 0
4.901752 0.49470988 -0.085994922 0
4.9152074 0.49606785 0.086230978 0
4.9405622 0.4986268 0.26023886 0
4.9295607 0.49751648 0.43347096 0
4.9325147 0.4978146 0.60871238 0
4.9507537 0.4996554 0.78810453 0
4.9495244 0.49953136 0.96697611 0
4.9660444 0.50119859 1.1523242 0
4.3242788 0.45107958 -0.53383482 0
4.9093971 0.51211518 -0.4318465 0
4.9078922 0.51195818 -0.25860697 0
4.9108415 0.5122658 -0.086184032 0
4.9158216 0.51278532 0.086271428 0
4.9161091 0.5128153 0.25903991 0
4.9462867 0.5159632 0.43509138 0
4.9427066 0.51558977 0.61018008 0
4.9538331 0.5167504 0.7888661 0
4.9506063 0.51641381 0.96752024 0
4.9593759 0.51732856 1.1511728 0
4.3201613 0.46529755 -0.53351605 0
4.9098282 0.52880687 -0.43203792 0
4.9140048 0.5292567 -0.25902107 0
4.9149179 0.52935505 -0.086286232 0
4.9252138 0.53046399 0.086466998 0
4.9358892 0.53161371 0.26017463 0
4.9391413 0.531964 0.43461731 0
4.9593725 0.53414297 0.61245513 0
4.9394808 0.53200054 0.78686023 0
4.9477334 0.53288943 0.96730256 0
4.9621954 0.53444701 1.1522368 0
4.3343277 0.4815295 -0.53546196 0
4.9071898 0.54517257 -0.43196416 0
4.8937621 0.54368079 -0.25804871 0
4.9264464 0.5473119 -0.086520359 0
4.9285188 0.5475421 0.086556755 0
4.9224834 0.54687166 0.25956321 0
4.9341459 0.54816729 0.43433705 0
4.954381 0.55041534 0.61206317 0
4.9504433 0.54997784 0.78889585 0
4.9424391 0.54908866 0.96662199 0
4.9619651 0.55125791 1.152606 0
4.3322873 0.49601296 -0.53541231 0
4.8995118 0.5609557 -0.43145141 0
4.9073014 0.56184757 -0.2588605 0
4.9188585 0.56317079 -0.086419776 0
4.9111204 0.56228483 0.086283825 0
4.9184327 0.56312203 0.25944769 0
4.9378705 0.56534749 0.43482929 0
4.9536872 0.5671584 0.61220896 0
4.9497452 0.56670702 0.78908294 0
4.9477978 0.56648409 0.96803606 0
4.9611692 0.56801504 1.1528569 0
4.3221154 0.50953531 -0.53436333 0
4.9013162 0.57781738 -0.43177849 0
4.9104652 0.57889599 -0.25912833 0
4.9099903 0.57884002 -0.086297579 0
4.9241815 0.580513 0.086547002 0
4.9298377 0.58117986 0.26015064 0
4.929565 0.58114761 0.43426704 0
4.9279242 0.58095425 0.60926229 0
4.9388566 0.58224308 0.78765392 0
4.9450288 0.58297074 0.96787131 0
4.9393783 0.58230454 1.1482406 0
4.320931 0.52409017 -0.5344311 0
4.9008846 0.59443337 -0.43191364 0
4.9082036 0.59532106 -0.25911286 0
4.9147944 0.59612048 -0.086416662 0
4.9192114 0.5966562 0.086494319 0
4.9316392 0.59816355 0.26035005 0
4.9329271 0.59831977 0.43473753 0
4.9396954 0.5991407 0.61096251 0
4.9484849 0.60020685 0.78950596 0
4.9574037 0.60128856 0.97068244 0
4.9636784 0.60204965 1.1543523 0
4.3334017 0.54035163 -0.53619462 0
4.8971753 0.61065114 -0.43176472 0
4.9063563 0.61179596 -0.25912219 0
4.9064021 0.61180168 -0.08630468 0
4.9373207 0.61565709 0.08684855 0
4.9340091 0.61524415 0.26058263 0
4.9348621 0.61535048 0.43508741 0
4.9291062 0.61463279 0.60990429 0
4.9474034 0.61691433 0.78965896 0
4.9585738 0.61830723 0.97131211 0
4.9706435 0.61981225 1.156449 0
4.3274484 0.55435026 -0.53568494 0
4.9002485 0.6277265 -0.43221882 0
4.9098153 0.62895203 -0.25941476 0
4.9192057 0.63015491 -0.086566575 0
4.939734 0.63278461 0.086927824 0
4.929451 0.63146734 0.26045224 0
4.9327483 0.63188976 0.43508542 0
4.9532022 0.63450992 0.61314553 0
4.9633036 0.63580394 0.79253262 0
4.9415288 0.63301456 0.96838349 0
4.9427509 0.63317108 1.150447 0
4.3295612 0.56938171 -0.53617978 0
4.9022999 0.64470279 -0.43258801 0
4.9141517 0.64626139 -0.25975692 0
4.9061365 0.64520735 -0.086374171 0
4.9166384 0.64658839 0.086559057 0
4.9178329 0.6467455 0.2599515 0
4.9295316 0.64828402 0.43499097 0
4.9418235 0.64990056 0.61200333 0
4.9429164 0.6500442 0.78962076 0
4.9437385 0.65015239 0.96923828 0
4.9566393 0.65184897 1.1541817 0
4.3233933 0.58332342 -0.53565514 0
4.912878 0.66285825 -0.43371511 0
4.914206 0.66303736 -0.25987583 0
4.9182334 0.66358078 -0.086625822 0
4.9133143 0.66291714 0.086539187 0
4.9329891 0.66557169 0.26086915 0
4.9354362 0.66590184 0.43570656 0
4.9285631 0.66497451 0.61063385 0
4.9460859 0.66733867 0.79048008 0
4.9534569 0.66833323 0.97157747 0
4.9512358 0.66803354 1.1534386 0
4.3062816 0.59572238 -0.5337795 0
4.8986435 0.67766851 -0.43265659 0
4.9037404 0.67837363 -0.2594412 0
4.9082928 0.67900336 -0.086490348 0
4.9267273 0.6815536 0.086815193 0
4.918767 0.68045235 0.2602362 0
4.9351692 0.68272144 0.43588263 0
4.9542327 0.68535864 0.61409545 0
4.9540882 0.68533862 0.79212177 0
4.9510064 0.68491232 0.9715417 0
4.9709883 0.68767655 1.1585706 0
4.3241673 0.61297911 -0.53624827 0
4.8903933 0.69324541 -0.43213081 0
4.9151998 0.69676185 -0.2601696 0
4.9301629 0.698883 -0.086916529 0
4.9324622 0.69920897 0.086957067 0
4.9176373 0.69710743 0.26029864 0
4.9472151 0.70130026 0.43715176 0
4.9356198 0.69965661 0.61207569 0
4.9626217 0.7034843 0.79385895 0
4.9520802 0.70198995 0.97220886 0
4.956615 0.70263278 1.1557634 0
4.3362455 0.62952918 -0.53800482 0
4.8998752 0.7113561 -0.43317696 0
4.9138713 0.71338803 -0.26022446 0
4.9072504 0.71242684 -0.086554222 0
4.907238 0.71242499 0.086553998 0
4.9335108 0.71623927 0.2612645 0
4.9346204 0.71640033 0.43624863 0
4.9253478 0.71505415 0.61109573 0
4.9541802 0.71924001 0.79288989 0
4.9443989 0.71781993 0.97116786 0
4.9614415 0.72029418 1.1574454 0
4.3185396 0.64175045 -0.53607202 0
4.8979144 0.72784758 -0.4332169 0
4.9127011 0.73004496 -0.26029062 0
4.9104142 0.72970515 -0.086652689 0
4.9224153 0.73148853 0.086864471 0
4.9262319 0.73205566 0.26100755 0
4.9362779 0.73354852 0.43661013 0
4.9544845 0.7362541 0.61501354 0
4.9449544 0.73483789 0.79180318 0
4.9570146 0.73663008 0.97412544 0
4.9630885 0.73753268 1.1583999 0
4.3343468 0.65896004 -0.53830534 0
4.9076233 0.74611652 -0.43429449 0
4.9186668 0.74779546 -0.26073807 0
4.9331675 0.75000006 -0.087098092 0
4.9339514 0.75011927 0.087111935 0
4.9288235 0.74933964 0.26127648 0
4.9280815 0.74922681 0.43610489 0
4.9225988 0.7483933 0.61136353 0
4.9416881 0.75129545 0.79167902 0
4.9573665 0.75367916 0.97468579 0
4.9458513 0.75192845 1.1549587 0
4.3241644 0.67225289 -0.53731769 0
4.9030633 0.76225096 -0.43411469 0
4.9252968 0.76570749 -0.26122418 0
4.9205136 0.76496387 -0.086919479 0
4.9045119 0.76247615 0.086636811 0
4.9332385 0.76694214 0.26164538 0
4.9267893 0.76593953 0.43621537 0
4.9395666 0.76792586 0.61378711 0
4.9472671 0.76912308 0.79298151 0
4.9538746 0.77015024 0.97450131 0
4.9534626 0.77008623 1.1573325 0
4.321466 0.6866805 -0.53726548 0
4.8998098 0.77857924 -0.4340553 0
4.9094572 0.78011215 -0.26052132 0
4.9232922 0.78231055 -0.087014407 0
4.9141407 0.78085637 0.086852662 0
4.9225845 0.78219807 0.26121792 0
4.9364691 0.7844044 0.43730283 0
4.9328432 0.78382826 0.61327487 0
4.9479513 0.78622884 0.79350924 0
4.956737 0.78762496 0.97557843 0
4.9620347 0.78846675 1.1599464 0
4.3269019 0.70242578 -0.53823107 0
4.9059401 0.79642636 -0.43483245 0
4.92803 0.80001247 -0.26164779 0
4.903429 0.79601878 -0.086710028 0
4.9166532 0.7981655 0.086943872 0
4.9273152 0.79989642 0.26160982 0
4.9458346 0.80290288 0.4383685 0
4.9374027 0.80153406 0.61417234 0
4.9514394 0.80381274 0.79449642 0
4.9469247 0.80307984 0.9741717 0
4.9581509 0.80490226 1.159663 0
4.3269806 0.71733665 -0.53853703 0
4.9087148 0.81377786 -0.43531778 0
4.9166574 0.81509465 -0.26118761 0
4.9206338 0.81575382 -0.087062143 0
4.9332213 0.81784058 0.087284856 0
4.9268279 0.81678075 0.2617279 0
4.9418716 0.81927472 0.43825823 0
4.9328718 0.8177827 0.61394638 0
4.9543772 0.82134783 0.79540515 0
4.9636016 0.82287711 0.97799355 0
4.954524 0.82137221 1.1594522 0
4.3192096 0.73093617 -0.53787178 0
4.9002872 0.82927144 -0.43481451 0
4.9022112 0.82959706 -0.26056644 0
4.9103651 0.83097696 -0.086929262 0
4.9325376 0.83472914 0.087321781 0
4.9364963 0.83539909 0.2623888 0
4.9424925 0.8364138 0.4385595 0
4.9408937 0.83614326 0.61529016 0
4.9414268 0.8362335 0.79377168 0
4.9555349 0.83862102 0.97695267 0
4.952332 0.83807904 1.1595904 0
4.3216701 0.74626589 -0.53848678 0
4.91782 0.84920895 -0.43662044 0
4.9017038 0.84642607 -0.26068887 0
4.9278426 0.85093969 -0.087288685 0
4.9321499 0.8516835 0.087364987 0
4.92874 0.85109466 0.26212674 0
4.9333377 0.85188866 0.43799818 0
4.9495435 0.85468704 0.6167208 0
4.9399147 0.8530243 0.79398376 0
4.9614153 0.85673708 0.9786728 0
4.966095 0.85754508 1.1634796 0
4.3341136 0.7633881 -0.54035312 0
4.8904219 0.86137336 -0.43444192 0
4.9061842 0.86414969 -0.26107979 0
4.9253411 0.86752385 -0.087295406 0
4.9301305 0.86836743 0.087380297 0
4.9279056 0.86797553 0.26223567 0
4.942163 0.8704868 0.43903837 0
4.9439564 0.8708027 0.61638498 0
4.948689 0.87163621 0.79585928 0
4.945292 0.8710379 0.97606289 0
4.9655395 0.87460417 1.16403 0
4.3452559 0.78038043 -0.54206544 0
4.9092846 0.88167638 -0.43637773 0
4.9111228 0.88200653 -0.26149848 0
4.9145064 0.8826142 -0.087155335 0
4.9308257 0.88554507 0.087444752 0
4.9250751 0.88451225 0.26224136 0
4.9279485 0.8850283 0.43803677 0
4.9348588 0.88626939 0.61561769 0
4.9448156 0.88805759 0.79571074 0
4.9637995 0.89146692 0.98030019 0
4.9644508 0.89158398 1.164469 0
4.326941 0.79207569 -0.54010898 0
4.9054008 0.89796656 -0.43629771 0
4.8840456 0.89405739 -0.26021487 0
4.9134269 0.89943588 -0.08718919 0
4.9354143 0.9034608 0.087579355 0
4.9343681 0.90326923 0.26289597 0
4.9275088 0.90201366 0.43826404 0
4.9353786 0.90345424 0.61605698 0
4.9533892 0.90675116 0.79757512 0
4.9558191 0.90719599 0.97931939 0
4.9660273 0.90906465 1.165547 0
4.320539 0.80588436 -0.53964406 0
4.8889141 0.91189998 -0.43510082 0
4.9141703 0.9166109 -0.26198214 0
4.9149194 0.91675061 -0.087269723 0
4.9269848 0.91900104 0.087483957 0
4.9181418 0.9173516 0.26219386 0
4.9254785 0.91872013 0.43835497 0
4.9387088 0.92118794 0.61685473 0
4.9397936 0.92139024 0.79587901 0
4.9559526 0.92440432 0.97995275 0
4.9581633 0.92481661 1.1644226 0
4.3173943 0.82028627 -0.53959179 0
4.9036307 0.9316687 -0.43668613 0
4.9099531 0.93286991 -0.2619226 0
4.9202023 0.93481714 -0.087418683 0
4.9068279 0.93227613 0.087181062 0
4.9276462 0.93623149 0.26286641 0
4.9464092 0.93979639 0.4404957 0
4.9593816 0.94226104 0.61982787 0
4.9440885 0.93935549 0.7970739 0
4.9529524 0.94103956 0.97997779 0
4.9621291 0.94278306 1.1660898 0
4.3376236 0.83920765 -0.54246867 0
4.9148083 0.95087665 -0.43796298 0
4.9070358 0.94937283 -0.26193529 0
4.9110026 0.9501403 -0.087311342 0
4.9239063 0.95263684 0.087540753 0
4.930377 0.95388871 0.26318124 0
4.9496527 0.95761806 0.44106799 0
4.9406796 0.95588195 0.61788762 0
4.9672313 0.96101898 0.8013199 0
4.9514151 0.957959 0.98030365 0
4.9633827 0.9602744 1.1671344 0
4.3298216 0.85276848 -0.54184747 0
4.9057937 0.96620756 -0.43744588 0
4.9125395 0.96753621 -0.26240078 0
4.9118156 0.96739358 -0.087382972 0
4.9241033 0.9698137 0.087601572 0
4.9202237 0.96904963 0.26281121 0
4.9330835 0.97158241 0.43987933 0
4.9428487 0.97350562 0.61856359 0
4.9434185 0.97361791 0.79800051 0
4.9413061 0.97320187 0.97894281 0
4.9456625 0.97405988 1.163729 0
4.3320494 0.86830533 -0.5424875 0
4.9092512 0.98399818 -0.43804592 0
4.9057531 0.98329705 -0.2622129 0
4.9203434 0.98622155 -0.087593019 0
4.9154644 0.98524356 0.08750616 0
4.9270535 0.98756647 0.26335141 0
4.9316411 0.98848599 0.44004375 0
4.9448066 0.99112487 0.61922097 0
4.9507031 0.99230671 0.79970902 0
4.9598598 0.99414212 0.98327333 0
4.964818 0.99513584 1.1690148 0
4.3267856 0.88235021 -0.5421958 0
4.9152756 1.0023594 -0.43888089 0
4.9039569 1.0000513 -0.26229462 0
4.911901 1.0016712 -0.087502018 0
4.9306002 1.0054846 0.087835133 0
4.9303432 1.0054321 0.26370594 0
4.9328709 1.0059476 0.44045195 0
4.9452252 1.008467 0.61969334 0
4.9455128 1.0085256 0.79941231 0
4.9414806 1.0077034 0.98029405 0
4.961946 1.0118768 1.1691309 0
4.3215284 0.89638036 -0.54191059 0
4.9083705 1.0181043 -0.43856663 0
4.9040956 1.0172176 -0.26248297 0
4.9099731 1.0184368 -0.087528013 0
4.9366331 1.0239667 0.088003278 0
4.9362082 1.0238786 0.26420179 0
4.9268665 1.0219408 0.44021928 0
4.9464722 1.0260075 0.62027723 0
4.9382071 1.0242932 0.79878205 0
4.9519582 1.0271454 0.98305023 0
4.9385238 1.0243587 1.1644148 0
4.3188763 0.91094416 -0.54195791 0
4.8389196 1.0206326 -0.43266448 0
4.8593655 1.024945 -0.26027134 0
4.8615255 1.0254006 -0.08672516 0
4.8733687 1.0278987 0.086936429 0
4.8759856 1.0284506 0.26116157 0
4.8754158 1.0283303 0.43592772 0
4.8754125 1.0283297 0.61179537 0
4.895834 1.0326371 0.79248357 0
4.8937554 1.0321987 0.97217757 0
4.9093809 1.0354944 1.1583556 0
4.3330016 0.92910844 -0.54411834 0
4.7678151 1.0223438 -0.42661086 0
4.7810583 1.0251834 -0.25625983 0
4.779109 1.0247654 -0.085315734 0
4.7810054 1.0251721 0.08534959 0
4.7905221 1.0272127 0.25676709 0
4.7950888 1.0281919 0.42905128 0
4.8142171 1.0322936 0.60454708 0
4.8170443 1.0328999 0.78028613 0
4.8285813 1.0353736 0.95991445 0
4.8349123 1.0367311 1.1415986 0
4.2359161 0.92315674 -0.53231245 0
4.7107897 1.0266485 -0.42181402 0
4.7121029 1.0269347 -0.25274703 0
4.7232347 1.0293608 -0.08437942 0
4.7096376 1.0263975 0.084136508 0
4.7319012 1.0312495 0.25380898 0
4.7406378 1.0331535 0.42448667 0
4.7228146 1.0292692 0.59349924 0
4.7394824 1.0329018 0.76827902 0
4.7399654 1.033007 0.94298106 0
4.7659569 1.0386715 1.1261331 0
4.2570515 0.94272488 -0.53536266 0
4.5832462 1.0149608 -0.41069591 0
4.5829048 1.0148852 -0.24599825 0
4.600255 1.0187274 -0.082242973 0
4.612927 1.0215336 0.082469523 0
4.6194663 1.0229818 0.24796076 0
4.6226234 1.0236809 0.41422442 0
4.6320658 1.0257719 0.58252412 0
4.6380358 1.027094 0.7523883 0
4.6312447 1.0255901 0.92203069 0
4.6397734 1.0274788 1.0971254 0
4.2421284 0.9543519 -0.53388536 0
4.5232248 1.0175902 -0.40562093 0
4.5448809 1.0224622 -0.24413987 0
4.5239248 1.0177478 -0.080938898 0
4.5334287 1.0198858 0.081108928 0
4.5488944 1.023365 0.24435546 0
4.5630312 1.0265454 0.4091906 0
4.5526633 1.024213 0.57296711 0
4.5551462 1.0247716 0.7394951 0
4.5678191 1.0276226 0.91008425 0
4.5826206 1.0309525 1.0844222 0
4.2581387 0.97296453 -0.53630787 0
4.4705286 1.0214945 -0.40120026 0
4.465991 1.0204577 -0.24008454 0
4.4691229 1.0211734 -0.080019228 0
4.4815788 1.0240195 0.080242254 0
4.4809566 1.0238773 0.24088906 0
4.4810691 1.023903 0.40214625 0
4.5000405 1.0282379 0.56677508 0
4.5130186 1.0312034 0.73321313 0
4.5050006 1.0293713 0.89825094 0
4.5213776 1.0331134 1.0707436 0
4.2534204 0.98690343 -0.53612733 0
4.4033389 1.0216883 -0.39547566 0
4.4147477 1.0243355 -0.23751307 0
4.4147177 1.0243285 -0.079106152 0
4.4209366 1.0257715 0.07921759 0
4.4114723 1.0235757 0.23733686 0
4.4203691 1.0256398 0.39700517 0
4.4185166 1.02521 0.55693704 0
4.4306784 1.0280318 0.72039151 0
4.4509759 1.0327414 0.8881644 0
4.4422269 1.0307114 1.0528117 0
4.2386699 0.99846923 -0.53468704 0
4.3295922 1.0198871 -0.38915721 0
4.3435707 1.0231798 -0.23386699 0
4.3489652 1.0244507 -0.077989064 0
4.3534865 1.0255157 0.078070141 0
4.3692956 1.0292398 0.2352521 0
4.3662434 1.0285207 0.39245152 0
4.3738594 1.0303147 0.55174047 0
4.3753943 1.0306762 0.71196067 0
4.38765 1.0335633 0.87621474 0
4.3706951 1.0295694 1.0366708 0
4.2481756 1.0157541 -0.53631276 0
4.2659459 1.020003 -0.38374168 0
4.279603 1.0232685 -0.23060627 0
4.2942529 1.0267713 -0.077069223 0
4.2906051 1.0258991 0.077003755 0
4.3028107 1.0288175 0.23185682 0
4.3139362 1.0314776 0.38805863 0
4.3065825 1.0297194 0.54368633 0
4.3086257 1.0302079 0.70165426 0
4.3155222 1.0318569 0.86249673 0
4.3272367 1.0346578 1.0271802 0
4.2142239 1.0225854 -0.53245628 0
4.2271452 1.0257207 -0.38055861 0
4.2244134 1.0250579 -0.2278163 0
4.231184 1.0267007 -0.075998671 0
4.229681 1.0263362 0.075971678 0
4.2482595 1.0308442 0.22910228 0
4.2392068 1.0286475 0.38164452 0
4.2613387 1.0340179 0.53840917 0
4.2437925 1.0297602 0.69165456 0
4.2632289 1.0344765 0.85273391 0
4.261766 1.0341215 1.0124563 0
4.1390028 1.0190395 -0.52338111 0
4.1541562 1.0227703 -0.37429425 0
4.1634007 1.0250462 -0.22471005 0
4.1750865 1.0279233 -0.075052552 0
4.1866598 1.0307728 0.075260602 0
4.1766014 1.0282964 0.22542255 0
4.1815929 1.0295253 0.37676632 0
4.1855102 1.0304898 0.52926201 0
4.1946421 1.032738 0.68420452 0
4.1926012 1.0322356 0.83929443 0
4.2021089 1.0345764 0.99910223 0
4.0941539 1.0225685 -0.51814049 0
4.0956445 1.0229408 -0.36932918 0
4.1269875 1.0307691 -0.22293 0
4.1134682 1.0273925 -0.074006386 0
4.1257887 1.0304698 0.074228056 0
4.1346951 1.0326942 0.22334635 0
4.1137295 1.0274578 0.37096006 0
4.1364193 1.0331249 0.52348948 0
4.1327834 1.0322168 0.67467523 0
4.1355443 1.0329063 0.82856107 0
4.1471195 1.0357974 0.986848 0
4.0358934 1.022405 -0.51119822 0
4.0482755 1.0255418 -0.36536565 0
4.0590873 1.0282807 -0.2194472 0
4.0529556 1.0267274 -0.072979227 0
4.0717587 1.0314907 0.073317796 0
4.0559597 1.0274884 0.21927811 0
4.0694757 1.0309123 0.36727902 0
4.065568 1.0299225 0.51495689 0
4.0876112 1.0355066 0.66786391 0
4.1016216 1.0390559 0.82245809 0
4.1021991 1.0392021 0.9769823 0
4.0069103 1.0293716 -0.36194184 0
4.0082049 1.0297042 -0.21688178 0
4.0048642 1.028846 -0.072174974 0
4.0052476 1.0289445 0.07218188 0
4.0100923 1.030189 0.21698388 0
4.0239348 1.0337452 0.36347964 0
4.03759 1.0372531 0.51185071 0
4.0235553 1.0336478 0.65796053 0
4.0384889 1.0374842 0.81049162 0
4.0511107 1.0407268 0.96564078 0
4.1723933 1.4538164 -0.54251313 0
6.1503296 2.1430027 -0.56981182 0
6.1593451 2.1461442 -0.34183109 0
6.1707363 2.1501131 -0.11406166 0
6.1762652 2.1520395 0.11416387 0
6.189611 2.1566896 0.34351078 0
6.1891646 2.1565342 0.57340974 0
6.2052822 2.1621501 0.80683839 0
6.2016764 2.1608937 1.0401665 0
6.2225561 2.168169 1.2808619 0
6.2290201 2.1704214 1.5228778 0
4.170259 1.4687709 -0.54287291 0
6.148694 2.1655781 -0.57032973 0
6.1579008 2.1688209 -0.34215257 0
6.1647577 2.1712358 -0.11408507 0
6.1904044 2.1802685 0.1145597 0
6.1769629 2.1755345 0.34321171 0
6.1964002 2.1823802 0.57475477 0
6.1837926 2.1779399 0.80498916 0
6.1904383 2.1802804 1.0395018 0
6.20926 2.1869097 1.2796272 0
6.2150607 2.1889527 1.5212507 0
4.1693625 1.4841869 -0.54340088 0
6.1370597 2.1846368 -0.5699268 0
6.1656933 2.1948297 -0.34299248 0
6.1700425 2.1963778 -0.11431851 0
6.1814857 2.2004514 0.11453053 0
6.1876583 2.2026486 0.34421438 0
6.1852627 2.2017958 0.57440323 0
6.1953554 2.2053885 0.80745238 0
6.2232862 2.2153313 1.046259 0
6.2225513 2.2150698 1.2838897 0
6.2143869 2.2121634 1.5228927 0
4.0873513 1.4704522 -0.53335178 0
6.149013 2.2121489 -0.57172245 0
6.1486416 2.2120152 -0.34245458 0
6.1732302 2.2208612 -0.11451489 0
6.1836739 2.2246182 0.11470862 0
6.1814542 2.2238197 0.34428212 0
6.1913362 2.2273748 0.57565755 0
6.1992822 2.2302334 0.80893421 0
6.2166452 2.23648 1.0463973 0
6.2086959 2.2336202 1.2825688 0
6.225697 2.2397366 1.5274961 0
4.0993404 1.4903072 -0.5355652 0
6.151268 2.2362816 -0.57262599 0
6.1557789 2.2379215 -0.34326807 0
6.1736813 2.2444301 -0.11466222 0
