# .PCD v0.7 - Point Cloud Data file format
VERSION 0.7
FIELDS x y z
SIZE 4 4 4
TYPE F F F
COUNT 1 1 1
WIDTH 1499
HEIGHT 1
VIEWPOINT 0 0 0 1 0 0 0
POINTS 1499
DATA ascii
4.6919851 -14.981993 0.24276301
4.8538117 -14.970562 0.25159961
5.7620211 -14.995895 0.25994045
5.873775 -14.984673 0.26608214
6.078815 -14.971256 0.27521613
6.3153925 -14.958494 0.24649055
6.4749832 -14.954399 0.25234964
6.6679549 -14.941864 0.2230483
6.9505787 -14.945677 0.36912513
7.1477423 -14.929732 0.340556
7.3434296 -14.925282 0.32520348
7.5619307 -14.915237 0.35515648
7.7563047 -14.913509 0.2587426
7.9871235 -14.913552 0.31579098
8.1876163 -14.91584 0.32852891
8.2757044 -14.910517 0.28477553
8.5324154 -14.905533 0.29702097
8.7523346 -14.867172 0.22087145
8.8698826 -14.891649 0.30940872
9.0682831 -14.87664 0.29820573
9.3291187 -14.868071 0.31755519
9.5294094 -14.862474 0.33393502
9.7026443 -14.850981 0.29902792
9.842371 -14.840742 0.34959275
10.119428 -14.833416 0.34647512
10.323486 -14.822937 0.33009931
10.447884 -14.801523 0.26984677
10.719726 -14.814749 0.32269809
10.904205 -14.812797 0.285411
11.035231 -14.811575 0.27577466
11.263309 -14.824263 0.28859296
11.458414 -14.830656 0.34595352
11.648028 -14.827766 0.33948621
11.856876 -14.818604 0.3310588
12.051229 -14.814625 0.33391023
12.287808 -14.815807 0.34630296
12.507732 -14.802759 0.3800523
12.917438 -14.806183 0.37863299
13.046044 -14.806429 0.3787598
13.218298 -14.80408 0.37889042
1.7955674 -14.613719 0.36741236
1.8760749 -14.631086 0.25971171
9.714529 -14.792109 0.21645525
9.9229021 -14.794927 0.37582955
10.1535 -14.784642 0.33717394
10.330933 -14.7911 0.20852989
10.49301 -14.78742 0.28381383
10.666406 -14.791512 0.32169914
10.851295 -14.788224 0.2991156
11.142391 -14.785991 0.30918869
11.259346 -14.763046 0.30988443
11.467529 -14.753597 0.27676144
11.664442 -14.738156 0.26494062
11.862582 -14.747793 0.28994671
12.116447 -14.750899 0.30589592
12.319386 -14.696606 0.29326996
12.481319 -14.743714 0.3285948
12.648924 -14.645861 0.27224821
12.908607 -14.688892 0.31917882
13.050056 -14.61997 0.29156238
13.341549 -14.626879 0.31627312
13.50432 -14.67788 0.23424563
13.697437 -14.665411 0.2555384
13.92161 -14.656103 0.25131464
14.056128 -14.679605 0.31122661
14.293905 -14.649424 0.27379513
14.465717 -14.632092 0.25733864
14.709503 -14.633884 0.28255826
14.97839 -14.62771 0.25528264
15.053873 -14.629312 0.28690419
15.269886 -14.614485 0.2978971
15.475092 -14.613214 0.31115216
15.646988 -14.603695 0.24160936
15.873573 -14.628654 0.31933078
16.019501 -14.638512 0.37236482
16.704792 -14.603008 0.35295498
16.866631 -14.60327 0.28182453
1.7890981 -14.42754 0.32454115
1.8188643 -14.479218 0.29594809
2.0254574 -14.428867 0.20205587
12.904482 -14.591589 0.27990657
13.064871 -14.57835 0.28873861
13.345177 -14.589296 0.27860665
13.648854 -14.588396 0.22866949
15.092242 -14.596919 0.23858921
15.342112 -14.596065 0.22653516
15.47648 -14.595514 0.31104332
15.772943 -14.576777 0.3036707
15.932265 -14.574924 0.26725468
16.070335 -14.581102 0.30172786
16.363333 -14.55737 0.32261574
16.569752 -14.55991 0.33562863
16.726376 -14.546526 0.35159975
16.946892 -14.543459 0.39293817
17.133644 -14.544245 0.39390588
17.29624 -14.519271 0.27521789
17.515358 -14.520142 0.2611458
17.723549 -14.523153 0.22451311
17.927023 -14.499157 0.3630082
18.123791 -14.487975 0.35524243
18.241787 -14.510452 0.3304542
18.48945 -14.464046 0.24524391
18.661417 -14.444869 0.27469769
1.7881334 -14.237266 0.32695025
1.852011 -14.238903 0.32779431
3.9926732 -14.203895 0.3204419
4.0461297 -14.218653 0.28291166
4.337224 -14.278299 0.25311518
4.5127735 -14.297071 0.38036638
4.7454028 -14.294993 0.37967128
4.8882642 -14.298929 0.28935713
5.1001873 -14.258089 0.25868839
5.3153811 -14.253811 0.28682864
5.4820037 -14.248194 0.28983536
5.7249184 -14.226252 0.23640011
5.8895102 -14.217796 0.21815737
6.0829334 -14.214762 0.22189
6.3333349 -14.205922 0.23640838
6.4918194 -14.204994 0.26190805
6.6529293 -14.206953 0.27784348
6.8957009 -14.211915 0.34053975
7.0233631 -14.20331 0.34106427
18.646763 -14.370028 0.21503422
1.7836807 -14.050888 0.32471555
1.9194398 -14.120111 0.27106494
3.9874911 -14.180257 0.27373475
4.0023713 -14.178328 0.30744177
4.3054881 -14.165016 0.21962726
6.2572894 -14.198571 0.20578389
6.517036 -14.195964 0.20962822
6.7104907 -14.187877 0.34927624
6.9197407 -14.181898 0.36054552
7.0766258 -14.172083 0.22207347
7.3175225 -14.193716 0.39789051
7.5645218 -14.17691 0.39076734
7.7171516 -14.165213 0.2437692
7.8311491 -14.172406 0.32783684
8.0685101 -14.164929 0.35339552
8.30826 -14.123974 0.38227826
8.4962015 -14.135871 0.2346226
8.6365299 -14.091757 0.36518186
18.589769 -14.090534 0.31909391
18.644585 -14.139915 0.38853204
-0.64821053 -13.832106 0.26093692
1.7895408 -13.855774 0.34980103
1.9085207 -13.870937 0.29907244
3.8351851 -13.840654 0.21050733
8.3675919 -13.808295 0.33997861
8.5155792 -13.929115 0.24322662
8.6952705 -13.895878 0.29529542
18.578537 -13.848492 0.27359867
18.643772 -13.934433 0.3693074
-0.67051536 -13.675782 0.38167471
-0.57177961 -13.612503 0.23264188
-0.34018528 -13.616828 0.35086429
-0.13230351 -13.659466 0.36574084
0.031664286 -13.673265 0.28055727
0.60798347 -13.614418 0.22076969
1.0119567 -13.610821 0.38195851
1.3410605 -13.607304 0.35992819
1.7806196 -13.642714 0.27603057
1.8898525 -13.685457 0.33086628
3.7987995 -13.687545 0.20927906
3.8165317 -13.744555 0.20737877
8.3561563 -13.689107 0.2564252
8.4508028 -13.705736 0.24977042
8.7640266 -13.632668 0.31730193
15.125996 -13.647799 0.23779935
15.328358 -13.60175 0.27823237
18.57048 -13.712858 0.2807641
18.639545 -13.755379 0.37538621
-0.67624331 -13.476553 0.22867553
-0.4429028 -13.570696 0.30617484
-0.33794385 -13.59374 0.30035818
-0.19397424 -13.501691 0.27874932
0.08134599 -13.565496 0.28049731
0.3270064 -13.542336 0.25386959
0.53066456 -13.569574 0.23767811
0.78586882 -13.568364 0.36132255
0.96853209 -13.558295 0.32377481
1.1707613 -13.542027 0.29276204
1.3696328 -13.534956 0.33386555
1.5546831 -13.545744 0.34844252
1.7660749 -13.548183 0.34830028
1.8676609 -13.553255 0.31634867
3.7991822 -13.491244 0.20853555
3.809762 -13.547373 0.21501327
8.2953377 -13.457868 0.22010919
8.4833565 -13.513574 0.21420389
8.7511272 -13.48569 0.26853457
8.8048944 -13.529676 0.24789676
14.98271 -13.436646 0.20389061
15.125612 -13.449869 0.27754337
15.298505 -13.553272 0.30194587
18.579233 -13.443179 0.26408106
18.621473 -13.5721 0.32425824
-0.69304717 -13.228094 0.26790985
3.7927942 -13.290808 0.21720499
3.8438623 -13.330816 0.23313546
8.2602634 -13.367563 0.20402226
8.4774666 -13.254089 0.21456558
8.7273083 -13.303223 0.3500033
14.9792 -13.266129 0.21992943
15.023833 -13.251986 0.29185334
15.241348 -13.341875 0.33126882
18.577305 -13.339381 0.27783874
18.615368 -13.381715 0.2556726
-0.70425582 -13.016492 0.37317705
3.7905321 -13.148866 0.23028968
3.8931026 -13.117916 0.25223032
8.3046436 -13.046539 0.21233284
8.4773903 -13.119555 0.20676219
8.7261238 -13.104176 0.30512416
14.967525 -13.148657 0.20458394
15.156372 -13.080307 0.35458446
15.224093 -13.153393 0.36288047
16.892464 -13.018756 0.30999574
18.541142 -13.102383 0.24224162
18.619171 -13.193859 0.26670435
-0.70249772 -12.813305 0.26468682
3.792429 -12.917046 0.24418387
3.9259357 -12.909782 0.29375666
4.1805182 -12.882047 0.20629317
4.2079811 -12.852537 0.21780318
8.1841745 -12.808437 0.20012721
8.3058453 -12.846115 0.23364747
8.4619312 -12.852907 0.30388218
8.7136803 -12.883846 0.29405597
14.98075 -12.929794 0.23554268
15.021838 -12.867975 0.36730906
15.212858 -12.990313 0.38676396
16.931263 -12.987459 0.25150537
18.533194 -12.917784 0.23818544
18.638573 -12.994104 0.27292272
-0.70056963 -12.714995 0.29805225
3.7900338 -12.65609 0.26030746
3.9111395 -12.680182 0.30678725
4.4874916 -12.690493 0.20609386
8.1873531 -12.730471 0.21529165
8.3349895 -12.685577 0.25351864
8.4621964 -12.680283 0.31834194
8.706646 -12.766915 0.30144182
14.984394 -12.756849 0.26298404
15.040358 -12.707262 0.37676281
16.845093 -12.75402 0.37147123
18.52511 -12.764272 0.32662511
18.619228 -12.73852 0.25848788
-0.72133613 -12.522474 0.27928188
3.7895 -12.523119 0.27300259
3.925508 -12.539466 0.30966258
4.1861124 -12.410276 0.24586235
4.3862996 -12.410221 0.23307315
4.5296774 -12.414265 0.29459354
4.7262688 -12.406278 0.26516512
4.9455514 -12.40967 0.27676243
5.0677061 -12.402721 0.28344378
7.7281713 -12.4072 0.36635548
8.1788082 -12.458459 0.24141826
8.2446413 -12.462981 0.24208
8.4591427 -12.459127 0.32592446
8.6257324 -12.449166 0.34041798
14.968681 -12.573055 0.31996924
15.010101 -12.454318 0.37231243
16.880871 -12.474825 0.24997211
18.574862 -12.454508 0.28706056
18.614765 -12.560772 0.25982639
-0.67524552 -12.246132 0.28477389
3.7874153 -12.359657 0.28836817
3.9157157 -12.309248 0.33203214
4.1895847 -12.240114 0.3010067
4.228487 -12.209251 0.34823674
4.5236559 -12.252066 0.23312899
4.7754989 -12.370826 0.30780005
4.9446225 -12.371611 0.37210682
5.0470991 -12.292719 0.3565186
7.5906153 -12.304464 0.2604962
7.7158766 -12.322274 0.29960495
7.9292755 -12.316105 0.30343986
8.1083145 -12.304515 0.30912346
8.3771448 -12.287745 0.31711334
8.4449253 -12.268236 0.36671859
8.6546164 -12.222483 0.25206307
14.748592 -12.248888 0.38564694
14.980515 -12.348515 0.34961808
15.005302 -12.35952 0.37141231
16.874676 -12.320074 0.22942442
18.551449 -12.288076 0.29715103
-0.72111708 -12.080467 0.27173531
3.7883539 -12.084057 0.24897142
3.8319373 -12.082766 0.25755456
4.155344 -12.088879 0.31138143
4.2519221 -12.136512 0.37608263
4.5325623 -12.03368 0.20062557
4.6989717 -12.05661 0.24381866
4.9583893 -12.065824 0.34699732
5.0288849 -12.072494 0.34927487
5.271431 -12.071762 0.25538188
5.5081987 -12.058256 0.28464216
5.7392378 -12.039428 0.22724727
5.8533583 -12.054213 0.38737279
6.1108518 -12.008259 0.34830993
6.2519603 -12.024742 0.3411743
6.5515261 -12.003387 0.3361088
6.7157683 -12.006889 0.34052646
6.9695578 -12.026793 0.32701296
7.1426792 -12.038258 0.33626279
7.2714701 -12.019112 0.3601414
7.4952364 -12.027463 0.31873339
7.6077132 -12.006268 0.35196176
7.9874797 -12.067677 0.20665048
8.1537657 -12.031139 0.25622022
8.3599911 -12.01132 0.39512911
8.4806337 -12.040054 0.38320935
8.6325951 -12.034046 0.26158515
14.942806 -12.019503 0.2193082
15.003347 -12.062518 0.3733519
16.864304 -12.086046 0.24125008
17.146431 -12.119852 0.3673619
18.542692 -12.086587 0.2871125
-0.71147442 -11.842169 0.25466931
4.1830201 -11.998099 0.23651165
4.380641 -11.983699 0.21007475
4.511991 -11.99734 0.22561687
4.7534666 -11.990875 0.25858647
4.8670092 -11.986084 0.21378085
5.0861769 -11.996826 0.31056756
5.8907404 -11.995905 0.28383672
6.1403284 -11.989669 0.29901999
6.2922068 -11.98499 0.26717877
6.5479045 -11.975651 0.25917897
6.6699266 -11.97823 0.28749594
6.9327631 -11.965626 0.27900609
7.1216483 -11.964947 0.29763693
7.3195267 -11.962077 0.33424988
7.5495605 -11.910198 0.24464449
7.7373362 -11.939143 0.2262314
7.8704605 -11.903722 0.27058056
8.1772041 -11.873812 0.25110844
8.2549276 -11.873723 0.21605004
8.5837631 -11.943019 0.33376044
8.6049957 -11.949932 0.30998951
14.947233 -11.974817 0.21878733
15.001369 -11.96361 0.3718183
16.874702 -11.827211 0.27631956
18.515415 -11.911388 0.3398132
-0.74396408 -11.720095 0.31486383
0.16738111 -11.681229 0.26651421
0.22818151 -11.63352 0.23994477
14.944168 -11.764782 0.28170213
16.879711 -11.673692 0.25863153
18.516445 -11.718848 0.32364517
-0.74826694 -11.51543 0.34071606
0.18164101 -11.580873 0.24987341
0.22947949 -11.464483 0.27051842
14.932782 -11.423481 0.30863526
15.000681 -11.454566 0.37263179
16.868599 -11.504498 0.30039668
18.495085 -11.466957 0.29957059
-0.75569153 -11.305176 0.33699667
0.19547771 -11.221947 0.32207537
0.2085616 -11.329721 0.29442596
14.924227 -11.318306 0.3350479
16.866131 -11.281855 0.28552324
18.49757 -11.262571 0.33516291
-0.75466096 -11.087162 0.35188973
0.1671194 -11.106884 0.30853391
0.20593607 -11.130867 0.34564352
14.906216 -11.090576 0.32653889
16.847069 -11.125555 0.35085797
18.469856 -11.134478 0.27355266
-0.77432513 -10.856594 0.37961009
0.14069535 -10.907642 0.32459652
0.20174254 -10.938396 0.30939671
2.9344292 -10.906614 0.21049464
3.0153089 -10.834711 0.30891329
4.1160841 -10.801486 0.22117367
4.324636 -10.811141 0.21612725
4.4910569 -10.806106 0.22102274
4.7652893 -10.804714 0.34127355
4.9870629 -10.812607 0.31540054
5.0528202 -10.814534 0.30103788
5.2636271 -10.814234 0.26908916
5.5125804 -10.804065 0.20670141
6.1403904 -10.863899 0.387169
6.2328773 -10.841228 0.39328018
14.902786 -10.902409 0.34896538
16.842709 -10.876678 0.27122813
18.459774 -10.880814 0.28641647
-0.78212225 -10.739241 0.38784093
0.10135957 -10.679131 0.33586881
2.9467711 -10.791235 0.21795639
3.0104728 -10.771866 0.27007914
3.9877973 -10.716524 0.24058209
4.1733246 -10.741864 0.34430081
4.3344226 -10.7827 0.21804294
4.4365997 -10.728326 0.3854081
4.704484 -10.755138 0.36356592
4.874649 -10.722274 0.30223081
5.1312132 -10.758213 0.25485575
5.302681 -10.740858 0.33682027
5.4406309 -10.757585 0.25736019
5.741703 -10.724725 0.34227258
5.9539251 -10.720209 0.29087177
6.0535364 -10.737122 0.22653368
6.2453279 -10.721907 0.37614444
6.5580769 -10.67255 0.35199308
6.7276058 -10.696778 0.28693587
6.8516006 -10.644262 0.33793125
7.1685152 -10.619583 0.23362979
7.2376881 -10.6043 0.21398182
14.901628 -10.732166 0.33048561
16.799856 -10.60173 0.27283123
16.837387 -10.733775 0.30242792
18.458963 -10.660146 0.31105733
-0.79047179 -10.558151 0.39103666
0.080486961 -10.583931 0.32555708
3.7896228 -10.437454 0.20492339
3.8743157 -10.47085 0.32550287
6.6765146 -10.593173 0.33277076
6.8816857 -10.506429 0.37108624
7.1289001 -10.583649 0.32158417
7.2484245 -10.594134 0.22132769
7.444663 -10.444769 0.21593174
14.887024 -10.450874 0.3323825
16.783131 -10.471441 0.35245878
16.825958 -10.55023 0.37274316
18.448811 -10.527345 0.3124328
-0.78418291 -10.245996 0.36282149
0.03024907 -10.253514 0.35854295
3.7869248 -10.31881 0.23253691
3.8224511 -10.27107 0.29130113
6.9801664 -10.317911 0.3843444
7.1104321 -10.308073 0.3732242
7.3874893 -10.239104 0.33827388
7.4046645 -10.262868 0.32955411
14.855515 -10.243694 0.37568277
15.052345 -10.339157 0.333691
16.793835 -10.274422 0.28803188
16.811342 -10.233578 0.31193188
18.447231 -10.303602 0.37609491
-0.80336946 -10.06169 0.3606348
-0.77469629 -10.012106 0.36024958
-0.22633573 -10.017648 0.23518991
-0.0027934825 -10.055487 0.25149494
0.0071597425 -10.07208 0.36661422
3.7615781 -10.071217 0.2289602
3.8318014 -10.142786 0.34721607
6.9207091 -10.164789 0.39507717
7.1115942 -10.164087 0.38246626
7.2730007 -10.098158 0.34508288
7.4316587 -10.139427 0.33794534
14.878471 -10.122541 0.36049762
16.795372 -10.023472 0.3491264
16.810238 -10.12991 0.32508352
18.424545 -10.112196 0.28594899
-0.80356824 -9.9233208 0.35402101
-0.77706653 -9.8340378 0.34965226
-0.22185594 -9.9287901 0.3320896
-0.0086556571 -9.9672136 0.35653618
0.0062748706 -9.9517326 0.32585073
3.7432079 -9.8897362 0.21301392
3.8103576 -9.8593235 0.32983679
6.9781113 -9.9229851 0.39677858
7.1328979 -9.8943882 0.35281092
7.3515892 -9.8656101 0.34245849
7.4376559 -9.9191456 0.33313519
14.757812 -9.8273363 0.23761722
14.862981 -9.9400539 0.26083791
16.792801 -9.8668451 0.25999677
16.806828 -9.9696217 0.35039204
18.41774 -9.9422016 0.32907754
-0.81682217 -9.6448088 0.38911882
-0.79672641 -9.6531897 0.35496786
-0.43823856 -9.6395588 0.34281296
-0.32590967 -9.6388922 0.34600666
-0.14007914 -9.6291361 0.33057538
0.087422922 -9.6148472 0.3128491
3.7532525 -9.7513027 0.24451768
3.8198786 -9.728754 0.33999175
6.9742222 -9.6200237 0.39745891
7.1446195 -9.7827168 0.38982257
7.3625898 -9.7782612 0.37281328
7.4582982 -9.7294788 0.32988447
9.546196 -9.7194948 0.26384428
9.6030188 -9.6850748 0.28452486
10.399862 -9.6434298 0.27171978
10.454567 -9.6795263 0.24304856
14.757263 -9.7176237 0.24607648
14.810213 -9.6944389 0.38655227
15.122095 -9.6346951 0.23188457
16.775608 -9.7496529 0.34048855
16.846676 -9.6572933 0.26931381
18.382351 -9.6041422 0.30934811
18.411564 -9.6560402 0.32712597
-0.81045544 -9.5904264 0.37808698
-0.79566699 -9.5558262 0.36066794
-0.43507609 -9.5966883 0.2828691
-0.30812153 -9.5957298 0.25945681
-0.090965591 -9.5927906 0.26964626
0.13011859 -9.5618248 0.30592066
3.7679961 -9.5072613 0.24549335
3.8286133 -9.5804901 0.34855777
7.1593089 -9.4802399 0.38322246
7.3843613 -9.4252481 0.36328191
7.4352908 -9.4225388 0.29721057
9.572629 -9.5811176 0.38886553
10.462914 -9.5974197 0.38036287
14.764275 -9.5723228 0.30960172
14.945181 -9.4695225 0.27547848
15.143869 -9.5187378 0.23925067
16.573334 -9.5632591 0.28949067
16.785223 -9.4831486 0.32259366
16.866306 -9.5098495 0.2783621
18.394983 -9.5577126 0.2676239
18.405899 -9.5079823 0.36245286
-0.81230676 -9.2071505 0.24677418
-0.79550755 -9.2155876 0.28484184
-0.43236455 -9.2200642 0.38058105
-0.31252721 -9.2091026 0.34007239
-0.13471703 -9.212532 0.37604147
0.13429745 -9.339735 0.30237108
3.7701526 -9.329977 0.25520408
3.8201933 -9.2775917 0.37744489
4.3556447 -9.2193222 0.23314098
6.9533119 -9.2037525 0.39822739
7.1102686 -9.2176228 0.37079197
7.3588228 -9.3899393 0.37272698
7.4356413 -9.3919277 0.28285241
9.5589981 -9.2301884 0.39078325
10.434639 -9.2086411 0.37066376
14.711768 -9.2294998 0.3049702
14.844187 -9.3054962 0.21588415
15.124802 -9.3917179 0.20745707
16.762403 -9.2426243 0.24086669
16.859884 -9.3620167 0.30052197
18.387657 -9.2583141 0.26467627
18.417402 -9.2692032 0.27808887
-0.80701202 -9.0209475 0.31394091
-0.79433167 -9.0373392 0.24416453
-0.43761808 -9.0921974 0.26796541
-0.22264072 -9.1148911 0.28512973
-0.1018059 -9.08846 0.29430148
0.1311451 -9.1214809 0.29469341
3.7704325 -9.193943 0.2233185
3.8300729 -9.1636963 0.33380526
4.092062 -9.0155315 0.32406721
4.3819323 -9.0587997 0.23187217
4.4168096 -9.0406265 0.22708583
4.7350278 -9.0155125 0.33496791
4.8775635 -9.0194988 0.38423023
5.0780916 -9.0261478 0.37215769
5.3269792 -9.0349083 0.38918006
5.5214219 -9.0239811 0.36715057
5.6662374 -9.0059967 0.32649827
5.9374757 -9.0668898 0.37675312
6.1823244 -9.073576 0.38411522
6.2332234 -9.0041723 0.3408947
6.5333714 -9.0468254 0.37653846
6.7429304 -9.1108761 0.25296304
6.8646822 -9.0561523 0.24476561
7.1638384 -9.060955 0.36782882
7.3513913 -9.0757999 0.29317865
7.4124422 -9.1079903 0.22424708
9.5418596 -9.106781 0.38853258
9.7408352 -9.0186787 0.35617486
9.9499884 -9.0112114 0.3464247
10.096474 -9.0069103 0.34725338
10.283323 -9.0023584 0.31576917
10.435283 -9.0429974 0.31151062
14.771046 -9.1445665 0.28510612
14.808798 -9.0233803 0.33643711
15.093231 -9.1927757 0.2290778
16.756359 -9.1560793 0.22660331
16.837822 -9.1580372 0.246858
18.388008 -9.0763855 0.29612637
18.412643 -9.0401268 0.255797
-0.8069008 -8.8646698 0.23981529
-0.79545069 -8.8195171 0.22464889
0.15526229 -8.9921265 0.23990679
0.3432889 -8.8131142 0.37422138
3.9657059 -8.9884167 0.22983393
4.0218878 -8.96593 0.22235218
4.2951202 -8.9599209 0.30718586
4.4503555 -8.9330349 0.22131678
4.7107191 -8.9495792 0.29256564
4.8893566 -8.9675751 0.33937699
5.0595627 -8.924962 0.23176742
5.3480463 -8.9139566 0.27270752
5.4995356 -8.9227638 0.3158868
5.729733 -8.9122963 0.31259292
5.9283228 -8.9119186 0.33521926
6.0949726 -8.8965645 0.30713421
6.2717381 -8.8972006 0.32385868
6.4890528 -8.891367 0.3171069
6.6322827 -8.857542 0.23054646
6.8634911 -8.8865881 0.29600927
7.049633 -8.9040203 0.31742537
7.2035766 -8.9149303 0.23536769
9.4949894 -8.9320631 0.33171669
9.7605 -8.9228373 0.31934887
9.9540691 -8.9582844 0.33663952
10.104111 -8.9946938 0.34782666
10.396648 -8.8753376 0.3358638
10.401401 -8.8688564 0.33685511
14.793364 -8.8868961 0.34237182
14.823514 -8.9786167 0.33644724
16.730907 -8.8418827 0.3619839
16.813377 -8.9825859 0.21638232
18.381584 -8.9674473 0.31696868
18.408764 -8.8518219 0.25717586
-0.816145 -8.629941 0.26702592
-0.79657185 -8.7525215 0.22447726
0.19114077 -8.7795877 0.33978531
0.34642079 -8.6793451 0.2881071
0.40792102 -8.6794014 0.26521698
10.439816 -8.7897034 0.39664623
14.792488 -8.7314034 0.34647381
14.833227 -8.703145 0.38507733
16.718828 -8.6793346 0.38135368
18.369164 -8.6629734 0.36559695
18.405624 -8.7085114 0.29494178
-0.84095311 -8.535183 0.36548346
-0.79566395 -8.4688492 0.24144149
0.39100063 -8.4570351 0.21875077
0.42533648 -8.5185966 0.22775048
14.784236 -8.4761457 0.33976972
14.804774 -8.4020042 0.38429287
15.144678 -8.4322338 0.3805424
15.241387 -8.4062672 0.29508638
15.48682 -8.4172096 0.32646719
15.68803 -8.4060726 0.27201319
15.88308 -8.4045849 0.36497399
16.05481 -8.4083986 0.3185066
16.22337 -8.4039516 0.24081573
16.431133 -8.4053688 0.27913475
16.719757 -8.4657164 0.38623944
18.364332 -8.4939089 0.38824993
18.405636 -8.5793476 0.25302312
-0.83367455 -8.3373995 0.3608222
-0.79533505 -8.2464876 0.27089936
0.3608323 -8.3477612 0.20657477
0.42179444 -8.2483406 0.23957203
4.914896 -8.2056675 0.2379933
5.0105538 -8.2126389 0.29562676
14.787604 -8.3961706 0.29935765
14.810059 -8.3979664 0.39094979
15.138751 -8.3832188 0.29512525
15.30798 -8.3803368 0.31451261
15.511316 -8.3826389 0.31952435
15.739589 -8.3764839 0.31831992
15.857922 -8.3743954 0.33431008
16.080433 -8.3808565 0.34903726
16.290333 -8.3752441 0.35565919
16.503345 -8.3520794 0.2993477
16.63905 -8.3445044 0.30609202
18.391674 -8.2573166 0.39644665
18.412725 -8.2638979 0.37362784
-0.84241199 -8.1439562 0.39031932
-0.78744638 -8.0488892 0.24444565
0.3536087 -8.1727505 0.22807536
0.42740184 -8.0878868 0.24791908
4.7636185 -8.1063652 0.21281394
4.8577776 -8.036334 0.32567549
5.012208 -8.1903992 0.30698586
18.38628 -8.1353378 0.36018252
18.406521 -8.1579924 0.36417955
-0.84718943 -7.8850155 0.3912721
-0.79422617 -7.9752741 0.23804508
-0.31175229 -7.8230286 0.2585232
-0.015369426 -7.8055468 0.34025031
0.089978449 -7.8118887 0.323704
0.37222901 -7.972414 0.22455734
0.42487225 -7.9093938 0.25435451
0.70010531 -7.8263636 0.31600171
0.91489887 -7.812521 0.3517952
1.0634882 -7.814332 0.37401685
1.2681588 -7.8090992 0.31308031
1.4471617 -7.8117805 0.34290153
1.6525036 -7.814229 0.3520112
1.9320941 -7.8049393 0.36226076
2.0510597 -7.800128 0.3546508
4.8970895 -7.9769449 0.28600502
5.0056214 -7.9736919 0.3288025
8.8211231 -7.8040853 0.37071425
18.344463 -7.9576921 0.23333338
18.406582 -7.9880481 0.36054206
-0.84023589 -7.7861238 0.364685
-0.69694877 -7.7721767 0.376118
-0.50680149 -7.7613196 0.3538686
-0.32190728 -7.7649565 0.36038175
-0.071594536 -7.7536163 0.3365685
0.13529563 -7.7498589 0.35578364
0.31945217 -7.7894235 0.34067434
0.45904589 -7.7420068 0.32133329
0.65254176 -7.7342787 0.30082816
0.86618209 -7.7149496 0.31302303
1.1282797 -7.698576 0.3003172
1.3049605 -7.7005482 0.30603284
1.4630756 -7.689168 0.31010425
1.6749961 -7.6846519 0.30836201
1.8892227 -7.6773076 0.32687196
2.0624161 -7.6653309 0.30539608
2.3015556 -7.6538229 0.30540818
2.498436 -7.6525908 0.35015842
2.6788278 -7.6431189 0.34767967
2.9088519 -7.6418433 0.36629686
3.1147199 -7.638463 0.33123252
3.2863214 -7.6319418 0.33109653
3.482408 -7.6289558 0.37666637
3.692759 -7.6233654 0.36680111
3.8622618 -7.6138411 0.35068867
4.0660553 -7.619154 0.39023131
4.2449784 -7.6119075 0.38138038
4.4956245 -7.6160026 0.30244592
4.7235246 -7.6128454 0.32197469
4.9008074 -7.6114283 0.26658764
5.1330719 -7.6169782 0.27661481
5.3413992 -7.6077471 0.29155728
5.5350771 -7.6018772 0.30045125
5.6812429 -7.6061406 0.32298398
5.8758078 -7.6190004 0.26290116
6.0516253 -7.6065345 0.24393642
6.2839537 -7.6197329 0.24397674
6.4971409 -7.6043072 0.34332275
8.7748814 -7.692934 0.26305014
8.8160801 -7.7454348 0.28154552
13.669161 -7.603848 0.30896375
18.339905 -7.6976223 0.24804386
-1.056648 -7.5363579 0.29110658
-0.89509642 -7.5312514 0.32405514
-0.67625231 -7.5251665 0.30707809
-0.5184384 -7.5168047 0.30818516
-0.26420265 -7.5293326 0.31627375
-0.075754881 -7.5333481 0.32102448
0.062470533 -7.5247917 0.27781355
0.29241201 -7.5226879 0.29529521
0.52788413 -7.5111046 0.27327171
0.72112739 -7.5032868 0.25136697
0.88468802 -7.5107751 0.31840748
1.1025118 -7.509655 0.25876638
1.3165517 -7.5156207 0.32003042
1.4747182 -7.5002241 0.23593786
1.6899936 -7.4957266 0.29651284
1.8773559 -7.4869719 0.27440295
2.0870039 -7.4898157 0.23522475
2.3357677 -7.5028057 0.30252412
2.5199254 -7.4810271 0.35759079
2.6768246 -7.4793954 0.22973445
2.9807711 -7.5871649 0.37777466
3.1746912 -7.5893021 0.35486174
3.286324 -7.5599346 0.33717388
3.5467393 -7.5955062 0.3236016
3.7242451 -7.5856791 0.32360661
3.9695597 -7.5895185 0.32950726
4.141058 -7.5907021 0.32919073
4.328023 -7.5953517 0.33540168
4.5411868 -7.5061235 0.28185362
4.6603565 -7.5913563 0.23263323
4.8801575 -7.5885878 0.25156012
5.0654564 -7.5876174 0.30732372
5.2684593 -7.5733395 0.24794902
5.419661 -7.5867176 0.33922595
5.626812 -7.5928106 0.31969449
5.84515 -7.5843773 0.23542215
6.1070237 -7.5799351 0.37571815
6.2477121 -7.5617952 0.25015503
6.4708147 -7.5542259 0.24377795
8.5920782 -7.531188 0.32610983
8.6746798 -7.4833565 0.38653681
8.9099388 -7.4769382 0.38702452
9.0144958 -7.4587383 0.22633153
9.2662687 -7.4544854 0.30128527
9.5117569 -7.4569993 0.31665576
9.7144718 -7.445363 0.2525886
9.8863049 -7.4375801 0.24967557
10.140409 -7.4248343 0.31922811
10.259405 -7.4175854 0.33614194
10.496674 -7.4165945 0.30638379
10.640735 -7.4132023 0.3691684
10.871439 -7.4088783 0.38075411
11.008762 -7.4045429 0.35310847
11.232328 -7.4069195 0.35380608
13.360764 -7.4071732 0.35411721
13.574378 -7.4949408 0.36770982
13.674235 -7.5155263 0.20565155
18.326775 -7.5003395 0.25188059
-1.0415213 -7.291934 0.26498049
-0.98906517 -7.2907591 0.32190621
5.1040535 -7.3931398 0.34420633
5.9661326 -7.2613759 0.32495481
6.0169783 -7.2715149 0.30776283
6.2306485 -7.3052597 0.30200464
6.4405336 -7.3553061 0.30486059
8.6236668 -7.3630562 0.29739183
8.939045 -7.3882585 0.27788419
9.0628948 -7.3856783 0.25325784
9.2927666 -7.3844886 0.37042373
9.5630093 -7.370903 0.36642015
9.6993408 -7.3670945 0.3504656
9.9364023 -7.354496 0.32695201
10.132589 -7.3472257 0.32704735
10.228616 -7.3647757 0.33456177
10.509333 -7.3672295 0.26268899
10.708797 -7.3901024 0.23391491
10.907955 -7.3913555 0.33920455
11.013462 -7.3928299 0.35405272
11.221163 -7.3824816 0.3603248
13.352467 -7.2333474 0.26468325
13.539409 -7.2989001 0.2209034
13.604286 -7.2461929 0.28010395
18.122528 -7.2196794 0.2913464
18.351343 -7.2465014 0.36934781
-1.0044646 -7.0577707 0.38606855
-0.99133533 -7.1123428 0.32205653
5.9857235 -7.1017714 0.33922708
6.0230422 -7.0657687 0.30554
6.2286959 -7.1320429 0.2600629
6.4505296 -7.1399674 0.31037053
11.178062 -7.1952772 0.32209817
13.312233 -7.1646676 0.23727944
13.510878 -7.151309 0.2492308
16.384399 -7.0080633 0.386015
16.578316 -7.0155087 0.35668355
16.716488 -7.0079184 0.22117856
16.855488 -7.0163317 0.275527
17.012497 -7.0091934 0.23908943
18.112053 -7.0162029 0.36854029
18.349407 -7.1711016 0.3908121
-1.0085843 -6.9237566 0.38234216
-0.99516886 -6.9363232 0.32520878
5.9902492 -6.8725624 0.32240421
6.0181546 -6.9202714 0.29576769
6.2301226 -6.9012957 0.30981344
6.4459257 -6.8975329 0.25035441
16.346237 -6.9229984 0.39440203
16.564365 -6.9747825 0.29491013
16.619507 -6.9658012 0.28084469
16.847555 -6.8646574 0.30721664
17.042557 -6.8234987 0.29927537
17.269711 -6.8326855 0.24337116
17.440552 -6.8119464 0.25284848
18.110329 -6.987206 0.35766608
18.309464 -6.8127413 0.35029697
-1.0436075 -6.7029829 0.3555057
-0.98582077 -6.756249 0.35040584
5.9913659 -6.7185345 0.32531136
6.0167699 -6.653656 0.28858003
6.2268915 -6.7130718 0.33008105
6.4453821 -6.7212267 0.27803159
15.661472 -6.6102562 0.39529181
16.948992 -6.7937613 0.3554123
17.095947 -6.7662334 0.33309123
17.272221 -6.7047439 0.34574336
17.456657 -6.6561289 0.35568446
17.622747 -6.6177053 0.31595838
17.802532 -6.6059399 0.30195314
18.302588 -6.6491146 0.32495496
-1.0051723 -6.4873247 0.34299415
-0.99166584 -6.4840336 0.38805956
5.9962215 -6.4893503 0.3011708
6.018405 -6.4774446 0.28750655
6.2211604 -6.4120398 0.25818056
6.4338188 -6.5104666 0.27541798
15.388245 -6.4057012 0.3627896
15.480114 -6.4457493 0.39096519
15.610627 -6.5733113 0.38619256
17.559978 -6.5975113 0.39370155
17.645576 -6.5857563 0.32619774
17.817799 -6.4563303 0.36986697
18.287792 -6.4223237 0.33933342
-1.0340171 -6.3267794 0.33501324
-0.99854553 -6.2439685 0.35156998
4.8907566 -6.2470169 0.28600246
5.0632019 -6.2031813 0.26400471
5.9913292 -6.261158 0.29673195
6.0207462 -6.2965126 0.27967128
6.3897848 -6.3532438 0.38737071
6.4223738 -6.269115 0.28627774
15.3592 -6.3197246 0.34474224
15.406301 -6.3708353 0.3478567
17.876167 -6.3493977 0.38702434
18.283653 -6.3047152 0.35700196
-1.0617895 -6.0997758 0.28657407
4.8898582 -6.1825242 0.27976084
5.0394802 -6.041328 0.28514665
5.9937601 -6.1088419 0.30039316
6.0163193 -6.0799785 0.27601767
6.3721828 -6.0528393 0.24624938
6.4184465 -6.0741901 0.30577588
15.325778 -6.1473494 0.38673544
18.072872 -6.0104918 0.39357266
18.277775 -6.0071335 0.37217841
-1.0235991 -5.8294044 0.35253108
4.904273 -5.9794731 0.29744184
5.0312519 -5.854394 0.30379865
5.9947319 -5.895505 0.28482872
6.0196939 -5.8994656 0.26993835
6.3794746 -5.8768525 0.25261891
6.4153156 -5.9008484 0.24105102
18.078522 -5.8959732 0.38823992
18.264416 -5.9844503 0.34971672
-1.0580988 -5.7094421 0.32239246
4.9011736 -5.6925545 0.29649842
5.034462 -5.6411724 0.29130679
5.9964857 -5.7603149 0.2876054
6.0189276 -5.7165627 0.26018995
6.3632698 -5.6481371 0.20175812
6.4062386 -5.7130833 0.32801658
18.112263 -5.7094169 0.38925618
18.264305 -5.7141795 0.38214815
-1.0651255 -5.43642 0.38517594
-0.99848586 -5.4517727 0.3778359
4.8793058 -5.5082374 0.26759356
5.0266104 -5.4529877 0.30170336
5.9968076 -5.5091424 0.26660043
6.0195217 -5.5097318 0.2557092
6.3960533 -5.4590569 0.35522586
6.4141579 -5.5301933 0.31619972
15.232761 -5.4084396 0.34718418
16.586441 -5.4452448 0.34617811
16.665932 -5.5062971 0.39138576
18.141251 -5.5548215 0.3911432
18.225552 -5.5633516 0.35816956
-1.0564624 -5.3449588 0.33881289
4.8856077 -5.3435793 0.27145532
5.0072131 -5.3306522 0.2819517
5.9938974 -5.319654 0.25979483
6.0170002 -5.324162 0.25138518
6.393713 -5.3339791 0.37419686
6.412405 -5.2741499 0.36202547
15.27232 -5.2135057 0.37577581
16.59581 -5.3938107 0.3503961
16.619705 -5.3857226 0.3339588
18.13007 -5.3630819 0.3873952
18.227581 -5.3457661 0.30978054
-1.0850129 -5.1093082 0.37014616
-0.97905076 -5.0923386 0.39124161
-0.60665822 -5.0664978 0.34852481
-0.59291291 -5.0810423 0.34031534
-0.22561537 -5.074986 0.20914488
-0.040515903 -5.0623116 0.21180254
0.16074151 -5.0625715 0.21647248
0.32566196 -5.0582504 0.22820501
0.54552412 -5.0551248 0.23569602
0.73838145 -5.0487814 0.24226767
0.92731273 -5.0501871 0.25003585
1.1297629 -5.0747576 0.27227736
1.3742356 -5.0505524 0.27612484
1.5823964 -5.0273819 0.33318615
1.6099124 -5.0342798 0.38769928
1.9516201 -5.0230846 0.27172947
2.1647835 -5.0504584 0.23706216
2.337347 -5.0278764 0.25681388
2.5220101 -5.0237761 0.25724983
2.6592705 -5.0295143 0.23547822
2.9361191 -5.0346169 0.2188479
3.14817 -5.0328283 0.23629232
3.3185382 -5.032402 0.24276894
3.4376497 -5.0219407 0.23071186
4.8770752 -5.0914745 0.27007949
5.0359254 -5.133894 0.32980978
6.0172462 -5.0706778 0.248059
6.3793526 -5.1044388 0.38274702
6.4124832 -5.1560068 0.35432577
15.197285 -5.0320072 0.39407179
15.249636 -5.0047712 0.35272181
17.996954 -5.0003238 0.38983595
18.066875 -5.1674523 0.3943556
18.20755 -5.1005383 0.36821982
-1.0423263 -4.9192429 0.37291306
-0.99784327 -4.9119511 0.25849715
0.18366478 -4.9871097 0.20512477
0.52450097 -4.9863367 0.20824319
0.61629653 -4.9753218 0.22222888
0.91945177 -4.973031 0.21345305
1.6196007 -4.9975276 0.32971799
1.9433072 -4.997345 0.22078164
2.0580859 -4.9460778 0.21343938
2.3504643 -4.9705424 0.22468354
2.5696146 -4.9820671 0.22500432
2.6654167 -4.9882078 0.21639827
2.9085038 -4.9950161 0.25408268
3.0420358 -4.9673576 0.23509264
3.2797532 -4.9921703 0.27516714
3.4963045 -4.9468627 0.23760661
4.8755608 -4.8793459 0.25343925
5.0254488 -4.8119955 0.35744736
5.9910421 -4.9598417 0.2534093
6.017642 -4.9169388 0.24234262
6.3758421 -4.9448018 0.31986836
6.4079466 -4.9632516 0.34778002
15.258191 -4.9279404 0.35757568
17.968441 -4.8870869 0.39547455
18.005409 -4.9739766 0.39868408
18.249287 -4.8675194 0.29308313
-1.0240185 -4.6498547 0.25963986
-0.98417753 -4.629313 0.35379007
1.5888331 -4.6861744 0.2022593
2.5358915 -4.7924638 0.20075692
2.6713922 -4.7172499 0.20133661
3.4807138 -4.7484398 0.24247509
4.8742437 -4.7104168 0.26213533
5.0246143 -4.6647182 0.25910169
6.0188379 -4.7073903 0.23427655
6.3661141 -4.7308717 0.34860349
15.34585 -4.6261024 0.39027074
15.416719 -4.6519241 0.37385023
17.758972 -4.6029863 0.33057526
17.925592 -4.7581921 0.39881068
18.079937 -4.732543 0.32787097
18.286106 -4.6816158 0.20974502
-1.0401628 -4.5163207 0.35880244
-0.85328364 -4.4873495 0.33981472
-0.68290037 -4.4871173 0.34537089
-0.5934276 -4.4572992 0.36068451
-0.055364139 -4.4285727 0.20587236
0.15078588 -4.435029 0.21056646
0.34796929 -4.4390974 0.20301831
0.5314647 -4.4370956 0.20225407
0.76137936 -4.437561 0.21326751
0.90531069 -4.4272385 0.2127625
1.1474299 -4.4424582 0.36493415
1.273174 -4.4400301 0.36059672
1.5524496 -4.4333167 0.33480543
1.6225133 -4.40909 0.35008866
1.9220141 -4.4235182 0.21959314
2.0723748 -4.415338 0.21571764
2.2227759 -4.410285 0.22410548
2.5005853 -4.4040751 0.21917877
2.7345333 -4.4028492 0.2255573
2.871012 -4.4077864 0.21835035
3.1316702 -4.410984 0.23329248
3.2481599 -4.4069567 0.22388393
3.5043206 -4.4474664 0.22985125
4.875145 -4.4774437 0.25378886
5.0242376 -4.5411997 0.29267144
6.0169859 -4.5463781 0.22772326
6.3534884 -4.4711432 0.30265802
15.389954 -4.579423 0.38960347
15.492252 -4.4447322 0.39431405
15.618674 -4.4229889 0.36919266
17.577879 -4.4302778 0.33731246
17.765301 -4.4642882 0.39615738
17.874527 -4.5531483 0.38655254
18.165264 -4.4787531 0.30133647
18.282948 -4.4600906 0.21254352
-1.107985 -4.2286224 0.38257438
1.6153227 -4.3933687 0.3499614
2.7394118 -4.3976412 0.22975339
2.8569272 -4.3981609 0.2387505
3.1274574 -4.3967628 0.22195025
3.2706475 -4.3927422 0.2342678
3.4829049 -4.384841 0.21855977
4.8919315 -4.3278017 0.25157177
5.0209713 -4.2680721 0.29178619
6.0201888 -4.3076982 0.22170867
6.3471136 -4.2067661 0.20634639
15.58373 -4.3619795 0.39310795
15.652955 -4.2807741 0.39700174
15.833828 -4.205555 0.38334131
16.161896 -4.2266006 0.36888489
16.508091 -4.2430263 0.39214218
16.743023 -4.2502937 0.38833135
17.017832 -4.2363405 0.39192721
17.387131 -4.2226772 0.33153379
17.58614 -4.278964 0.38492143
17.696795 -4.3863821 0.38995275
18.161066 -4.3435469 0.32502013
18.289986 -4.256845 0.25997937
-1.1053324 -4.1638184 0.36046487
4.8697357 -4.0704951 0.23779938
5.0138807 -4.0685587 0.28334361
5.9984889 -4.0743484 0.21515512
6.0178375 -4.1546574 0.22069255
6.3481665 -4.1277218 0.21038046
15.780031 -4.1432829 0.39285833
15.880078 -4.1348038 0.39783475
16.13578 -4.1227655 0.39792866
16.282825 -4.1193886 0.3976371
16.507994 -4.1182861 0.397769
16.743752 -4.1122589 0.38353533
16.85972 -4.0540266 0.35671955
17.047531 -4.0535774 0.35424981
17.334936 -4.0751257 0.39789277
17.485287 -4.1866202 0.39582238
18.148121 -4.0695977 0.34404284
18.273479 -4.0991554 0.28696793
-1.1234933 -3.8659346 0.22512904
4.8659372 -3.8783598 0.23454809
5.0065918 -3.8525715 0.36057454
6.0188265 -3.9478776 0.21890913
6.3327346 -3.8802032 0.28720719
16.104021 -3.9892488 0.29461464
16.263329 -3.9916849 0.29672223
16.539265 -3.976011 0.33535475
16.669762 -3.9638953 0.30525532
16.860741 -3.9527915 0.30660856
17.186995 -3.9726963 0.31863439
17.212696 -3.9842286 0.33688301
18.149323 -3.940834 0.33759055
18.26487 -3.9030242 0.30658174
-1.1204429 -3.6292696 0.26419058
4.8520436 -3.6752212 0.23488969
5.0101957 -3.7210946 0.26757145
6.01928 -3.6516478 0.20880434
6.3273211 -3.6255019 0.23503946
18.135452 -3.7310081 0.33236718
18.262903 -3.644335 0.33706
-1.1156625 -3.4936364 0.28745955
4.8503656 -3.4350309 0.21776715
5.0070896 -3.4664445 0.34313685
6.0221767 -3.5151341 0.31987476
6.3173909 -3.5361371 0.27780545
18.130054 -3.4622831 0.35648561
18.256599 -3.5097404 0.36748809
-1.1215568 -3.2456498 0.28237736
4.8467245 -3.304472 0.2973294
5.0021868 -3.2351098 0.33424002
5.998796 -3.2712965 0.21468247
6.0239778 -3.2843888 0.38406271
6.3110666 -3.3082175 0.25526699
18.176464 -3.3046508 0.25047436
18.227558 -3.2761667 0.25265783
-1.1080999 -3.0728638 0.26029542
4.8991637 -3.1024873 0.25230557
5.0014334 -3.1417637 0.30866256
6.0225172 -3.1005011 0.31231079
6.3019714 -3.0493455 0.26412439
18.180309 -3.0709643 0.2257193
18.22105 -3.1091695 0.25792709
-1.1048485 -2.8476977 0.28414047
4.9211407 -2.8649814 0.29562056
5.0024161 -2.9290318 0.35422152
6.0269666 -2.8594189 0.33639532
6.292202 -2.8794973 0.25860837
18.179167 -2.9056077 0.21443695
18.209694 -2.9255042 0.25392276
-1.1082897 -2.6906238 0.27786273
4.8770504 -2.7291718 0.31527296
5.0096111 -2.7154865 0.38911727
6.0228643 -2.673162 0.33934096
6.2872639 -2.6859145 0.27507961
18.156849 -2.6746788 0.21980959
18.205994 -2.7090197 0.30855435
-1.1099725 -2.5876322 0.26686063
4.8542171 -2.4444325 0.31433344
5.9988728 -2.4959757 0.20692663
6.0234108 -2.4347124 0.32941431
6.2785964 -2.4061127 0.29350889
18.136614 -2.43399 0.21871966
18.230949 -2.4913468 0.37835836
-1.1103653 -2.3366387 0.23965573
4.9186649 -2.3374033 0.20742173
6.0213704 -2.3390183 0.325214
6.2751408 -2.3917146 0.29386961
18.135731 -2.3236928 0.22727595
-1.0367548 -2.0086074 0.25799531
-0.85804117 -2.0203862 0.26020989
-0.73773861 -2.0079534 0.25569963
-0.59171903 -2.0303407 0.25986144
-0.23350915 -2.0317168 0.21561526
-0.027387138 -2.0352321 0.22415698
0.16412838 -2.0303288 0.23614016
0.34473109 -2.0278635 0.24023786
0.5513196 -2.0302005 0.22756808
0.67499071 -2.0052943 0.20857354
0.93647301 -2.0101774 0.206919
1.1506765 -2.007827 0.29872066
1.3198357 -2.0112367 0.36408824
1.5356266 -2.003983 0.35585675
1.7695518 -2.0125813 0.20482478
1.8653767 -2.0056996 0.22149646
2.0952945 -2.005846 0.21121466
2.2977505 -2.0035858 0.22483619
2.4746089 -2.0051799 0.26121777
2.7265873 -2.0042393 0.26865456
2.8221769 -2.0053349 0.23538491
3.1269412 -2.0028071 0.22971323
3.2363245 -2.0018718 0.2534712
3.5206885 -2.0040312 0.20395131
4.8756981 -2.0815806 0.35926598
5.0047202 -2.1919694 0.34988514
6.0225039 -2.1687918 0.33087909
6.2597427 -2.0387344 0.31222981
18.120365 -2.1123924 0.22060418
-1.0680573 -1.9743222 0.26170117
-0.97211087 -1.9927561 0.2699405
-0.60342598 -1.9778911 0.33662692
-0.58361912 -1.9949642 0.33101004
0.16825028 -1.9435863 0.20361462
0.70167565 -1.9844172 0.22091126
0.914258 -1.9921201 0.22138666
1.1514037 -1.9942837 0.27905926
1.3506869 -1.9919823 0.35291979
1.5739653 -1.9899781 0.3585121
1.6664273 -1.9873642 0.20845112
1.9051464 -1.9781562 0.20473835
2.097465 -1.9764645 0.22679552
2.269031 -1.9723513 0.22394405
2.5502872 -1.9665031 0.22319362
2.6887531 -1.9677422 0.22602341
2.9189844 -1.9678063 0.23042379
3.0252571 -1.9578068 0.22930974
3.2448099 -1.953371 0.22824617
3.4179859 -1.95207 0.23235047
4.8823557 -1.8614206 0.33319491
5.9980726 -1.8358934 0.32301557
6.0325966 -1.9383155 0.32188153
6.2536159 -1.806874 0.3244597
18.108782 -1.8999684 0.23405233
-1.0906024 -1.7911408 0.26487985
0.28470251 -1.6724606 0.20059243
3.1898968 -1.7117665 0.26714748
3.2038462 -1.6541567 0.26442641
3.4479835 -1.687306 0.20680487
4.888319 -1.6321356 0.22616535
6.095499 -1.696774 0.31521481
6.2486925 -1.7744498 0.32553482
18.096119 -1.7043155 0.25172561
-1.1068941 -1.403695 0.25821397
-0.84073883 -1.4228692 0.26522017
-0.64927208 -1.4151621 0.242668
-0.51919305 -1.4057724 0.27173096
-0.29773265 -1.4080311 0.24452376
-0.099075869 -1.4063857 0.23466039
0.059142821 -1.4061205 0.23579168
0.29775876 -1.405813 0.23094589
0.45993078 -1.4138401 0.2393942
0.72331464 -1.4086797 0.22390851
0.94184506 -1.4112782 0.2368201
1.1103559 -1.4090674 0.29137763
1.3162286 -1.4040674 0.26740682
1.5709403 -1.4109371 0.32183105
1.6240332 -1.4164044 0.38132632
1.9047766 -1.4259564 0.23422179
2.177995 -1.413371 0.27273226
2.2379823 -1.4100139 0.23687676
2.5306325 -1.4289715 0.23383
2.7155137 -1.4087657 0.23107535
2.899343 -1.4095532 0.26969558
3.1106246 -1.4156172 0.24859293
3.2204304 -1.5000339 0.23875032
3.4931598 -1.5216312 0.22274736
4.8636012 -1.4717319 0.33325952
5.0014477 -1.4981699 0.3965992
6.1743059 -1.436589 0.27759293
6.2361326 -1.4737132 0.33796927
18.103409 -1.5152798 0.26515883
-1.1195717 -1.3646328 0.24558073
-0.95920056 -1.3859469 0.28072822
-0.64102471 -1.3945391 0.26061785
-0.55678749 -1.3977225 0.25989538
-0.34513146 -1.394675 0.23732425
-0.12126844 -1.3898768 0.23845842
0.095803723 -1.3951946 0.2289556
0.26267582 -1.3951991 0.23136437
0.49253935 -1.3949282 0.23751003
0.64647746 -1.3951904 0.23570244
0.91532612 -1.3950648 0.21485637
1.0908551 -1.3853959 0.3340171
1.2731256 -1.3933054 0.32887945
1.5205512 -1.3853253 0.31676006
1.6153827 -1.3831258 0.28898191
1.9203098 -1.3939593 0.22105838
2.120626 -1.389338 0.20752224
2.3054099 -1.3874985 0.25959396
2.4659448 -1.3884255 0.21302158
2.693572 -1.3947394 0.23368484
2.9656031 -1.3948865 0.23895141
3.1293137 -1.3836718 0.24124902
3.2336895 -1.395655 0.24027427
3.4343729 -1.3887193 0.20340028
4.8569736 -1.2609234 0.25843874
6.1949592 -1.3402548 0.25976157
6.2319236 -1.3019422 0.34707338
18.084782 -1.342586 0.27420536
-1.1327933 -1.0804923 0.26458856
4.852519 -1.062833 0.22640717
6.1978474 -1.0373299 0.28221762
6.2236609 -1.1582013 0.35364652
18.073565 -1.1741035 0.26940691
-1.1358404 -0.89425498 0.26512846
4.8466487 -0.89671731 0.25847647
6.1944122 -0.84890532 0.28662416
6.2164001 -0.92775226 0.36604917
17.995905 -0.82298297 0.29505581
18.063881 -0.93459344 0.27671427
-1.1327038 -0.71624333 0.26161003
4.8553219 -0.71171069 0.2871964
6.1937723 -0.68772376 0.29110086
6.2083454 -0.72100735 0.37757462
17.987553 -0.69618857 0.20778325
18.048479 -0.65498197 0.28992453
-1.2051334 -0.44972035 0.20423862
-1.123595 -0.50987959 0.25524381
4.7801242 -0.42624289 0.21938367
4.8348026 -0.53748596 0.26713672
5.9956179 -0.45313168 0.20309056
6.1975274 -0.51285934 0.38356104
6.204134 -0.56609356 0.38402531
17.982723 -0.53219247 0.21576661
18.059057 -0.51541364 0.3101756
-1.2068245 -0.26361832 0.20213807
-1.1290255 -0.35286605 0.25311741
4.7930698 -0.26665545 0.20224583
4.8550825 -0.33304346 0.30861861
5.9936442 -0.20969681 0.20866646
6.1877718 -0.29583502 0.39106959
6.2142801 -0.28323445 0.28259614
17.958544 -0.2812115 0.21586084
18.034693 -0.27608591 0.30032152
-1.2046018 -0.055397987 0.2102963
-1.1349443 -0.15760344 0.25501952
4.7886896 -0.088161856 0.22569898
4.8291025 -0.12268485 0.29535455
6.1765895 -0.11709978 0.35183913
6.2035828 -0.1360089 0.21797621
17.961456 -0.1484364 0.22225431
18.031675 -0.081391022 0.31526649
-1.1438761 0.035047688 0.27972877
4.787776 0.079672277 0.23072645
4.843699 0.072532497 0.33769152
5.9994888 0.01050445 0.27796593
6.1602058 0.066030554 0.31387371
6.2033238 0.069531061 0.25423199
17.968357 0.10718311 0.24519286
18.023697 0.058489989 0.32682502
-1.1536877 0.22244769 0.31048131
4.7980113 0.36079696 0.26863396
4.8292871 0.29382861 0.31016496
6.1519041 0.28376564 0.31942505
17.973495 0.29841328 0.25665659
18.017078 0.33957618 0.34390712
-1.2099762 0.4775998 0.29839057
-1.1809629 0.41465408 0.34230167
4.7944927 0.47210997 0.26393825
4.8141155 0.48072064 0.27984822
5.9995189 0.45481786 0.31556097
6.1449127 0.49138993 0.32952839
17.974876 0.48500627 0.27071524
18.012817 0.5241648 0.35255569
-1.1871262 0.63988096 0.22165044
4.7941027 0.71173954 0.26969147
4.823698 0.63199186 0.32372591
5.9995494 0.79162192 0.31624538
6.1345959 0.70919335 0.33007786
17.987926 0.71763229 0.33778113
18.015139 0.67368305 0.36505187
-1.2075896 0.97875619 0.32397819
-1.171134 0.97943896 0.26373544
-0.94263589 0.99203646 0.30798036
-0.78289741 0.9968583 0.33424634
4.7948589 0.89625227 0.27648807
4.8306375 0.80260217 0.31213599
5.9974747 0.92397368 0.26482663
6.1281815 0.84820729 0.34323993
17.984142 0.86212361 0.35998899
18.004648 0.90249437 0.25147411
-1.2095865 1.1431333 0.29397967
-1.1894033 1.0192813 0.30440372
-0.88283896 1.0390739 0.32154059
-0.68456197 1.0145673 0.34199321
-0.52079427 1.0136381 0.35729823
-0.34089473 1.0267347 0.35923809
-0.13059168 1.0599871 0.3562665
0.047858872 1.0494807 0.34249023
0.26532215 1.0522327 0.32149488
0.44808114 1.0578814 0.30974963
0.62260544 1.0737123 0.28688782
0.8367517 1.0742861 0.29613915
1.0870811 1.1012584 0.29028276
1.27386 1.138985 0.34084564
1.420076 1.1165284 0.32430172
3.3011928 1.0780971 0.27988502
3.4599676 1.1604255 0.29729146
3.7633252 1.1694587 0.33906674
3.8463759 1.1650732 0.3123619
4.1208148 1.1925012 0.29718804
4.2781067 1.1960702 0.3170675
4.4893951 1.1948243 0.29355145
4.7149959 1.1977834 0.28632727
4.9046717 1.1356368 0.29346529
5.9951396 1.0819297 0.27948812
6.1141653 1.1552446 0.34716567
17.977726 1.1615775 0.38077167
18.001814 1.0268226 0.37045449
-1.2059696 1.3660705 0.3152093
-1.187259 1.3398029 0.28904736
-0.891891 1.2155118 0.37654096
-0.75666583 1.2063348 0.23934039
-0.55215299 1.2076447 0.2297585
-0.33226824 1.2118888 0.31252566
-0.12313247 1.2086399 0.30667067
0.1290589 1.2101808 0.28249478
0.25031722 1.2076406 0.33874369
0.51746047 1.2152612 0.29044247
0.71480429 1.214288 0.28673172
0.8515076 1.205686 0.325928
1.0277742 1.2066294 0.33539253
1.2986524 1.2034161 0.3486279
1.4754925 1.2081845 0.25582504
3.3057699 1.2206814 0.28871769
3.4769471 1.2184625 0.28625083
3.7600904 1.2050121 0.26731959
3.9181848 1.2230619 0.34181097
4.0933728 1.2342173 0.34071916
4.2797346 1.231849 0.32033724
4.4802704 1.2336705 0.29956272
4.7736254 1.2217984 0.32330155
4.9246416 1.2535353 0.3223545
5.999784 1.3207877 0.33395934
6.1137004 1.3008908 0.35961425
17.976301 1.3094509 0.38731539
-1.2054714 1.5596769 0.32359147
-1.1948562 1.5109679 0.31927282
5.997591 1.5157328 0.30348888
6.1041098 1.4778652 0.35549957
17.961227 1.4997914 0.38644874
-1.2075452 1.7904096 0.3230761
-1.1954292 1.6476654 0.31576866
5.9977951 1.756691 0.25800857
6.0951567 1.69582 0.36443478
17.953876 1.6718712 0.37345502
-1.2204545 1.9915569 0.38447767
-1.1949021 1.9188988 0.32774922
5.9969835 1.8367224 0.2595171
6.0837755 1.9138086 0.37590969
17.962288 1.9227685 0.38214785
18.019783 1.9547151 0.20090622
-1.2951307 2.1837301 0.28273362
-1.1769145 2.0486336 0.34638649
5.9996419 2.0037718 0.23924968
6.0772939 2.1109982 0.38670284
6.2063675 2.1641212 0.3384366
17.939976 2.0968213 0.3663674
-1.3037391 2.2266881 0.28892928
-1.1538122 2.3823099 0.35840893
0.099277973 2.23808 0.29289448
0.27582228 2.2495189 0.28875551
0.55391109 2.2613139 0.29500544
0.75076687 2.2703123 0.29253954
0.92788136 2.2747498 0.29559189
1.1059489 2.2900887 0.28779089
1.2827032 2.2914977 0.29106772
1.5317523 2.2999396 0.28924638
1.6819232 2.3112135 0.28975016
1.9404973 2.3135135 0.29153556
2.1235561 2.3221107 0.28863454
2.3097053 2.3360763 0.28975558
2.5340011 2.3473694 0.29438826
2.6781507 2.3533638 0.28777659
2.8641295 2.3541594 0.29254937
3.1081345 2.3673692 0.2886647
3.3370957 2.3865516 0.28867093
3.5036097 2.3928938 0.29134822
3.6975582 2.3961618 0.29079768
3.8401489 2.3979185 0.29174781
4.1259022 2.3919752 0.30287325
4.2554412 2.3962333 0.27757969
4.4998684 2.3963611 0.3637411
4.6938496 2.3960233 0.34256464
4.8618755 2.3980312 0.37484917
5.0206003 2.3940938 0.30745679
5.2921915 2.3889198 0.31121093
5.447917 2.3902636 0.33928615
5.6628504 2.384582 0.259399
5.8623075 2.3800139 0.22481832
6.0669508 2.318974 0.38195848
6.3153787 2.388237 0.29641765
6.5173402 2.3826318 0.31166852
6.6744967 2.3855236 0.33305037
6.9052072 2.3942614 0.32731396
7.0731788 2.3752263 0.27624166
7.3028135 2.3932831 0.33578527
7.6164517 2.3917773 0.20056759
17.914165 2.3031831 0.343162
-1.2781827 2.4655752 0.28513628
-1.1778297 2.5547674 0.37474698
0.14923155 2.4432955 0.32145554
0.29874238 2.4392402 0.30888665
0.432237 2.4187832 0.24772272
0.78037167 2.4857821 0.31755677
0.96826446 2.4137428 0.39257008
1.0746715 2.4497237 0.38831851
1.3297192 2.4044039 0.34819612
1.5392392 2.4109428 0.31285685
1.7250398 2.4330609 0.30526331
1.9084976 2.4728403 0.2925292
2.0488615 2.4019327 0.26712307
2.2995572 2.4377785 0.30722815
2.531738 2.4214458 0.25447196
2.6828578 2.4059751 0.3216573
2.9599464 2.4176121 0.33430415
3.1290379 2.4059327 0.35197204
3.364706 2.401876 0.34416616
3.5571294 2.4037707 0.34070265
3.7260804 2.4067917 0.31391793
3.9376926 2.4057126 0.2900182
4.1153641 2.4133356 0.28896648
